ply
format ascii 1.0
element vertex 716
property float x
property float y
property float z
property uchar red
property uchar green
property uchar blue
end_header
1.317140969438444 -1.460235514834424 6.155105325815145 138 112 123
1.7199404681446164 0.38313653120030866 5.599741101749929 79 60 79
-2.4408116281427894 -1.7513541983052099 9.32103620547776 62 45 53
1.6100367515395966 0.34545039585944604 5.683006049426547 88 66 78
1.8321469008504652 0.43659639393907296 5.494118152736069 148 125 141
-3.3724005078300556 -1.5138187943641466 10.07389152617698 118 95 121
0.2582358309963992 -1.3325690597155582 7.021306502828487 75 53 66
1.6849064395917694 0.3502318657624323 5.616822932122956 120 102 124
1.3429308693063347 -1.2740238179840564 6.108598558370902 128 113 134
1.0305457173576817 -1.4266932376776529 6.3913938042181035 71 55 68
1.6855564078353906 -0.13578183521545298 5.700010086580008 133 118 137
1.229565438057196 -1.3506706420168548 6.210285653563448 136 124 148
-0.8770339849515815 1.4035639462352858 5.403146999713556 104 53 70
1.0441266369092819 -0.5873440476608665 6.296376087537879 58 53 60
-0.6234409250084787 -1.1946653618724867 7.106468919474202 129 78 95
1.428963526823864 -1.4668884564251445 6.064823332655184 124 101 117
1.4408228290559255 -1.5588316886407465 6.061246136117495 55 43 57
0.048288529245638014 0.8468583571553258 6.162480914816865 144 95 116
0.6260558273213198 -1.9633615072720776 6.7982313166422 58 40 56
1.1390713589892776 0.6048019174941466 6.064599282660013 91 66 72
-2.548303888624573 -1.276157590528435 9.366325892792887 79 55 69
1.2395736311963805 -0.8002651015784701 6.14931780353615 116 107 126
1.6169967776631107 -0.8898714112361226 5.837957366189944 136 114 137
0.9638462748705107 -1.421032379961844 6.449628331029816 79 58 67
-2.928781277867332 -0.9322481640637432 9.633791730614552 72 60 72
0.5235035570834975 -1.7114564833880597 6.835776214998769 139 122 141
1.1625976969240719 -1.778646710502926 6.337712091668196 58 45 63
0.9392356483040883 0.1746993619075737 6.276527905171863 137 119 145
-0.3889520175791593 0.059357146329822336 6.936312639054214 67 29 42
-3.909649915359959 1.3190553508194298 10.092505546217518 99 110 142
-2.072793611390706 -0.9944548423460716 8.932885478402632 128 111 130
0.8467436837002226 -0.5136822444925446 6.445296874963738 129 111 133
-1.47773417602721 -2.2082968464469963 8.575056239598263 70 56 73
1.5127192478231664 0.4780321355048877 5.755076214311003 75 54 73
0.3408328100591838 0.7308023900216216 6.162123870378428 159 105 121
1.3140753664160731 -0.14433803974128123 5.999906253377284 63 42 49
1.6663198803232377 0.8910301541172875 5.5820060069730015 90 66 82
-0.7391918029884597 -0.5701962508337448 7.2796005129003625 54 25 30
1.1085657080645146 -1.2120316334025591 6.302412173232403 76 54 67
1.16854062272248 -1.286622417664206 6.272880380268105 71 58 68
-1.0604349006408746 -1.504543965670379 7.409946256077503 137 84 102
-1.9512769809744737 -2.154885587193091 8.964049529114515 74 56 68
-2.086285681821714 -0.7424753082518941 8.91082217506655 52 36 49
1.7620355034691977 -1.5852379563643206 5.802780203552825 45 29 42
0.7725303773665623 -1.958048404704431 6.681645966912763 133 120 146
-0.8909587229544828 0.9614901575888124 6.931670460990017 128 144 195
1.6511995930773171 -1.8234280263943843 5.911184733698764 81 64 80
0.4095577893176825 1.154789753155974 5.754881723626846 41 32 27
-1.0168468040060668 1.257593204189212 6.885691824509551 70 51 57
1.351339269919977 0.1063022003621428 5.94936414836804 86 58 70
-0.47790597761121106 -1.2306394620617647 6.91122690658106 119 73 83
0.7385304328062473 -0.3171585167508189 6.520973180845964 80 54 65
1.6690687312542243 0.045448368809901545 5.677080130759318 138 120 134
1.16854062272248 -1.286622417664206 6.272880380268105 71 58 68
-0.7682550431302648 0.5737692705221736 6.969017713688764 57 37 36
1.498008083148263 -1.0690955583109631 5.9584507336235 73 60 70
1.1126269560289503 -1.7650123254812946 6.364732966527033 83 58 79
1.162048989860675 1.280840096293925 5.964507859170943 82 65 84
-0.36139345660395156 -2.262395814821599 7.65554008670983 63 41 64
-0.256803676924274 1.0920732004447145 6.402222056519129 77 47 57
1.7199404681446164 0.38313653120030866 5.599741101749929 79 60 79
0.8424049243172531 -1.9638027384134331 6.610331823613907 130 115 138
-4.008536124817807 1.9330232486050776 10.006115145472018 36 48 70
-0.6084432570939032 0.9812914671093337 6.711104204527689 56 47 50
-1.672008611290833 -2.6590589532209776 8.781900373704488 83 56 71
0.47828949998117193 -1.3762898037337987 6.853991421669241 103 71 84
0.7385304328062473 -0.3171585167508189 6.520973180845964 80 54 65
1.4373491811285646 1.260018929702254 5.7278471025642 72 52 63
1.1701795914648458 0.6168223826979263 6.013896106844098 130 113 131
1.4012159563929591 -1.4558413053170072 6.087058588235182 75 49 58
0.9810365659216085 -0.3350520641008669 6.317730387827256 49 34 41
-2.7277823653171325 1.2258443965930386 9.198359569168332 19 25 51
-1.731829581166934 1.671367051943495 5.81508588336061 107 72 92
-0.912253294208615 -2.477333200590757 8.132012566433216 84 56 78
0.7723307374915418 -0.7275830014068231 6.53320382761902 137 125 147
1.111880827293198 -1.0593571349873663 6.277223938807134 71 48 58
1.9308411641795127 -1.3709066242064896 5.626721616694835 93 65 88
0.22833566298240504 1.5784159947916598 5.912911562797573 69 43 52
1.9445886897338516 -1.5157369781049213 5.626061730121353 95 71 95
0.45518537329539865 -0.7346012045709494 6.818288714133098 72 49 57
0.7234573372546643 -1.384785029414073 6.657619748745971 97 71 84
1.925513593576457 -0.24937724691416485 5.512189457925624 137 112 131
-2.5512409754300704 -1.7252583128519 9.416802524505016 131 114 133
-0.565062209139271 0.8144060049712294 6.851232952872897 162 108 124
1.0215978575541644 -0.7606732601112947 6.3332640380352005 119 115 132
0.005777553308475924 0.5462142561515586 6.727640192439045 67 29 40
-2.637624244036295 0.19628747389805146 9.270604790277808 52 40 62
-1.1419435897449841 -1.1501242306784847 7.531328071602188 108 76 99
1.2139848239234918 -0.792828540832395 6.169820577570913 118 108 132
-3.8674358436042975 2.062837215349116 10.045828679292828 117 129 169
1.9109434767700508 1.6514964359559001 5.1159734262174625 166 186 255
1.4575054794271405 -0.8199453869794538 5.959272700186707 93 63 73
1.5756624737956548 -0.5913013762020346 5.8484152035846675 66 49 59
1.4212759421981587 0.09514761476628865 5.887781319945859 64 43 48
-0.3400614667830319 0.35867209431013874 6.843156542299905 69 28 36
1.2093962732194394 -1.2077743883229384 6.235896744210773 140 127 147
-0.7165137812883932 0.565364657919652 6.983202412439166 130 117 137
-3.091451413977097 0.04125818485719093 9.650978918255213 126 110 136
-1.0482078292263344 -1.370267262219937 7.322195696587418 45 21 21
0.5880086549688059 -1.9569181155967748 6.845467093546381 63 47 60
1.4477641266675678 0.3630110115226781 5.846749817151337 132 113 133
1.9080471460520145 1.1415508516429511 5.3324317509015495 95 66 71
1.2894008513411723 -1.7876604284712276 6.232448591628228 130 116 141
1.059214353447922 -1.4015629395302842 6.365297580541023 127 117 141
1.3729777330504616 -0.34971111102320407 5.987999705867534 138 121 140
1.5361535884599662 -1.812883830386864 6.008351084644493 55 39 52
-2.994476740297466 -2.2680055525339515 9.84322161235003 94 66 80
0.49439737688776536 -0.5096574621585034 6.725764941359898 98 67 82
-0.5017836310678143 1.607780923582279 5.397915477020047 117 78 96
-3.8475726500737153 -2.1730196167787756 10.473212910248819 27 44 100
-2.6435358124951693 0.4856451300120164 9.231285391050971 68 51 67
1.7035397482358248 1.211378928864417 5.499327443966482 127 106 115
-0.5178182974724379 1.1389640101243854 5.422393228064906 125 77 93
1.6447130188406194 -0.8963465763284648 5.812746533097763 97 74 100
-0.33658252370944136 1.4664018667296734 5.683911742206931 80 42 57
0.13913007685377915 0.0793922894846712 6.662565759449448 55 32 40
-0.7541722725851419 1.60744292197016 5.362849523162782 122 83 104
0.9997557606880098 0.8144938426365361 6.141335815321668 123 115 138
1.5651418475785652 0.6768669846128043 5.708716405037128 62 41 60
0.33786340955683647 0.5695898588918459 6.467258775717693 65 25 33
1.8480550930085942 0.4137858678726888 5.479221360541282 103 76 91
1.5072238715736013 -0.3917334155761435 5.882454302309427 81 51 63
1.435810920181667 1.5219879844578843 5.693568608835374 104 100 125
1.0851389054304799 0.7379456117011144 6.076615754611019 102 77 98
0.9848190805278724 0.5475323109255241 6.204850960456009 126 114 136
-2.4358258153095447 -0.057050448575349015 9.117993636243083 75 57 83
-1.9686938048381706 1.7397301395725198 5.952562181258515 61 35 46
-2.9086658106357306 -1.0747351159548773 9.609347419519821 100 84 94
-2.4422456703082505 -0.2813763811657808 9.151103663002223 60 43 53
-1.7461164648782368 -0.15531740731313937 8.11389198162482 53 31 34
0.22833566298240504 1.5784159947916598 5.912911562797573 69 43 52
1.0123429180369463 1.1304924533289702 6.099606096203794 123 124 145
1.55089751383365 -0.1745216728747282 5.808023167872753 67 42 48
1.0826039641795022 0.1475473532713782 6.151212224970536 131 116 135
-1.990039147505828 1.271575339017933 7.826759682537551 71 38 47
0.6286446696302586 -0.511341418716181 6.622197600667884 92 62 74
1.2992990677087586 -0.7952950549073707 6.099357285193255 64 51 77
1.0883903231710843 0.5185083822984489 6.124035853477833 70 49 66
1.9225136410610233 1.2133938074245383 5.29910505456574 67 44 52
0.8672088142626486 -0.09609295843527602 6.376835242487907 126 116 141
1.4457628643331222 -1.6076137394974916 6.056649422634002 73 49 63
1.345383014663767 -1.4526958978865154 6.130462365780136 70 48 60
-1.047876197221838 -1.5379010373201312 7.429978216778705 57 30 37
0.9957530866137041 0.5321710205396222 6.202997939187259 62 44 56
-0.9855733899637537 -2.4134076574504078 8.18138006992949 126 105 120
-0.8903099712882983 -0.5235912779173396 7.392597975202513 63 28 35
0.3388525789495478 -1.1464551750084535 6.926230662872398 89 61 73
1.8454009659431143 0.43176031233059997 5.4836094705189415 149 126 142
1.9225136410610233 1.2133938074245383 5.29910505456574 67 44 52
-2.098941447018998 -1.013261135447063 8.95142566209271 72 49 65
-3.090959717410404 -1.9400470099459939 9.869780813947289 79 51 74
1.1366457828637562 -0.06835546098765835 6.1424852214143675 72 55 74
-3.888130883117246 -0.2657204597371101 10.284101374435808 102 114 152
0.9484480412896713 -0.31741533164863567 6.325155574384771 136 114 137
1.8522199100376096 -0.45547868143780607 5.578343567198287 141 114 129
-0.378822379795441 1.109385619302483 6.516180010593006 97 50 66
1.7503761998746294 -1.3223206234222067 5.777714267128461 52 35 51
-0.3400614667830319 0.35867209431013874 6.843156542299905 69 28 36
1.0903405292027888 -1.9997201469500914 6.414536497925906 68 49 68
0.529872242287106 -1.3865602410969302 6.811243586467716 84 55 60
-0.780197241362484 1.4890090541525358 5.4056957780951835 99 57 79
-0.8770339849515815 1.4035639462352858 5.403146999713556 104 53 70
-1.6186195744910712 1.7013115802350511 5.657203544409703 88 47 63
1.4620260567045982 -1.8095400981155658 6.089729480227134 52 39 56
-3.4297454375248737 0.2729121625098375 9.904614616194841 65 75 111
-2.8229532948839307 -0.6822375025165262 9.52051864356589 49 35 52
1.2387451806212888 -0.8157127048455227 6.150100112647965 86 58 70
1.1930619099891253 -0.4097781236740027 6.143396237734368 128 103 124
0.7215642245572491 -0.5208553844164793 6.554168967696198 87 63 77
0.4345715763131956 -2.148133545474999 6.973820149421036 85 57 79
0.8819353353932755 0.14233867953117715 6.3385504390366405 67 50 66
-2.2355475489091976 -2.139033830052048 9.196826462657478 100 68 83
0.3220182368005581 -1.4862826708724959 6.994520496883574 92 65 82
1.6508845641930006 -0.8885539032833435 5.816675270517676 127 106 121
-2.8870437917573333 -0.8587814099094442 9.596002844663376 55 39 52
-2.4358258153095447 -0.057050448575349015 9.117993636243083 75 57 83
-2.597186872578268 -1.2721417118297758 9.401765912308756 86 64 76
1.1722824444654605 1.1252461269365277 5.973230266954087 122 114 137
1.4620260567045982 -1.8095400981155658 6.089729480227134 52 39 56
-0.06627295088579371 -2.2693858918803516 7.410101162155113 131 117 143
1.4421922849612647 -1.4545270416264182 6.044852835726528 69 54 73
-0.1445065378609435 -0.3187913608613808 6.949448177440575 94 69 88
-3.4128807798835936 -1.4587102202546087 10.090014204958221 99 111 153
1.4408228290559255 -1.5588316886407465 6.061246136117495 55 43 57
-2.5139860181837608 -1.5237132956079482 9.36871118436754 73 49 62
1.2629173223689936 1.4612094025773288 5.842254810095257 131 110 129
1.020635255181016 1.3766339619643921 6.058600218651483 120 116 139
-0.04941447858393136 -2.147518403403916 7.371799625023824 95 74 93
1.5692292076644583 0.47582445073981183 5.705589193375148 91 66 88
-1.8870882427840707 -2.303653570007309 8.93395198165241 72 54 78
1.264628214610126 0.34098288959489026 5.994879480700937 76 56 68
-2.4539181899615246 -1.95813855054481 9.359890844066523 91 59 70
-2.055357334236248 -1.014553770279209 8.923182785949363 56 44 54
0.15636380726656995 0.8859681174638524 6.080843012341664 134 90 105
1.6960392678835332 -1.6330400468235786 5.854346505216632 89 62 81
-0.7738534535365406 1.1467265367268582 6.831202824751683 96 52 65
0.1004637563030598 0.393650023763867 6.662469651157105 44 17 22
1.399624187480273 0.08332055185986299 5.911763679819329 137 113 127
1.1217481001875265 -0.35981617789608944 6.218789481485037 65 43 55
-0.9075623511421681 0.5082008055709032 7.0106206694594215 173 169 160
-2.9017368777701917 -1.4538975236103893 9.663062804171979 143 121 142
1.7038310507491297 -0.3915596336368151 5.712483526430813 127 109 133
-0.6754885191780781 1.4625602015505226 5.416553290533618 157 109 131
-1.1457072106265591 1.606943037968616 5.333882274350783 107 68 89
1.0816238491809547 1.5450873861924035 5.9911324584541665 104 95 112
2.4833930168833027 1.1452153840783579 5.615334716813844 62 70 107
-0.8118181775783588 0.03138073915170817 7.260900734450095 86 51 29
0.11866010761173999 0.34312108980955375 6.651684535900926 45 20 26
-1.672008611290833 -2.6590589532209776 8.781900373704488 83 56 71
1.0852810620277324 -1.2129762646036608 6.289564838841647 88 65 75
0.8805432827754247 -0.7602088986980265 6.437262768441913 127 115 135
1.037098934604393 -0.7626135511078228 6.323619237700386 67 50 69
1.000853966181196 1.013293901458151 6.115741604281035 115 108 126
-0.8364225053821723 0.46973817708547305 6.992600823586567 110 101 104
0.7316465780004656 -1.9699288795038552 6.69815368823184 90 62 77
-3.0608783328342732 0.5278069020423861 9.551947137901749 80 63 81
0.5931937960671628 -1.5712633854561096 6.763986323183228 92 65 82
0.9034169124938767 1.734235821101867 5.970915584244488 56 52 66
1.3879747709433208 0.08863563611903882 5.923183301401963 142 118 131
1.1469034708040653 -1.2016168030377188 6.276242041963884 142 127 150
-1.5365863345271158 -2.3474027306289242 8.6489184272158 76 60 87
-0.7794156051336769 1.40499571539615 5.414086153354998 112 59 79
0.5880175672865523 -1.7382548034678342 6.803855432055603 74 51 71
0.566391225317831 -1.5069405462734924 6.792404187316703 99 66 83
1.1512665562666926 0.915723101997955 6.0226579721153035 120 110 134
1.269243208358163 -0.8150464981361305 6.128563956359494 76 50 61
1.4133327658436179 -0.28930386331781965 5.943887386203924 78 57 66
-1.0604349006408746 -1.504543965670379 7.409946256077503 137 84 102
-4.560517595188821 1.6763857255982733 10.662535987885375 93 107 156
-2.0582391250112653 -2.1527873344740467 9.061008101709767 79 60 80
-1.4753621984137446 0.23253748017151085 7.997104719158032 56 29 36
-2.6973876883794237 -0.021260786331538557 9.329614506795416 61 43 65
-2.150844241999345 -2.482803917805165 9.16528059165427 71 53 69
1.6933166688795616 -1.561360083288706 5.85784264798119 124 111 137
1.7637686639639953 0.08583909825627938 5.604698176324505 130 111 131
-3.091451413977097 0.04125818485719093 9.650978918255213 126 110 136
-2.5317928629794944 -0.26834055421073716 9.23204662983737 59 44 67
1.2400846726468653 1.2332557745438069 5.885234223423722 134 117 136
1.309171634242166 -1.200852448263583 6.1346052281974615 136 121 144
1.6503966755572321 -1.0580796738117035 5.830933673833811 137 119 143
1.1431556519437953 1.302605043136752 5.977676606089511 143 143 167
0.7987380466954255 0.6643386821598298 6.322468605945983 77 50 67
0.2465308987168164 -1.3155823663781963 7.032323628611753 136 119 138
-2.238421867037053 -2.800760000647169 9.283453362781248 58 41 60
-0.7011523297448082 -0.9381808248849169 7.0359690137812585 61 31 31
1.7337516094483425 1.491780480804124 5.444338109968822 63 53 62
0.5219093134635787 -0.7257091555112974 6.734262432642907 85 56 74
1.1533953599176514 -1.6025237398346874 6.304461926799902 84 57 76
1.2751181398616482 1.5315937011328145 5.828895966845429 136 114 135
1.2362952569403156 -0.7896398716344973 6.157517648677765 69 53 79
-2.2355475489091976 -2.139033830052048 9.196826462657478 100 68 83
-0.8101702913501683 -0.5299941300740191 7.338874022749095 111 68 78
1.582759575997141 0.9471303667504553 5.638016588661735 89 63 72
0.7460052402199844 -1.174885892647647 6.593894077936569 91 67 81
0.663738562569977 -2.0317134604077514 6.766432474684065 52 37 58
-0.5577175296086628 -2.2597083720635136 7.718512878035553 37 25 25
-2.6973876883794237 -0.021260786331538557 9.329614506795416 61 43 65
0.3388525789495478 -1.1464551750084535 6.926230662872398 89 61 73
-2.945859273089956 -2.9778896114501188 9.878966806937136 94 71 91
1.4485935487040857 -1.5437083164128915 6.061322285517555 126 110 136
1.2362952569403156 -0.7896398716344973 6.157517648677765 69 53 79
0.33786340955683647 0.5695898588918459 6.467258775717693 65 25 33
0.15873796501271226 -1.700768217934544 7.1597879865370455 94 69 90
-0.5017836310678143 1.607780923582279 5.397915477020047 117 78 96
1.56137692551812 -0.824004489328118 5.879587087507989 69 48 63
-0.6249025384356853 0.5673804807598889 6.931876825260283 40 21 25
-0.7974166120495237 1.520366984109926 5.394774683412934 83 46 63
1.458221557024422 -1.5796680944418657 6.042162662699967 126 103 121
-3.114723099545931 1.3923978199348652 9.502602731314273 133 123 150
1.8534426328254692 -1.1275697073291664 5.663149226485498 81 64 82
0.9860393403571388 0.3596004854778148 6.20961432064751 101 67 81
0.7979605510826833 -0.7711911131261597 6.51254910383304 134 120 143
-2.5317928629794944 -0.26834055421073716 9.23204662983737 59 44 67
-0.34433745565106016 -0.31133045552941996 6.787447949786436 55 23 26
-3.9350591987220036 2.0014251552606757 10.002177741970918 24 29 49
-0.14971236764537546 -0.2940873323813666 6.963422859345735 61 29 32
-0.1408576734749246 -2.0275206321509067 7.433832580953636 92 68 90
1.3482636809716857 -0.5828221432292254 6.0175898349895665 73 56 66
-0.9566175165405387 1.002914281977754 6.990901541910639 84 46 57
-1.9586295910026632 1.501860394677717 6.054941285386891 73 45 60
-2.0627793287749445 -1.7568281660987028 9.01006054036387 80 60 71
0.11892466844663656 0.288046195724026 6.654285988580105 73 33 44
1.025672852136016 0.8042807717662069 6.128625566262325 125 121 144
0.9202667539716551 -0.11219839485242877 6.35147854123466 59 44 51
-0.6705749106534752 -1.1932315165553515 7.1302336756857665 133 80 96
1.8152039415587033 1.670197046034524 5.185903886542993 15 22 41
-0.050885622174524046 -1.9157489383482853 7.321364012243237 91 61 73
1.7426977045386245 0.31485473513189666 5.59144045557501 136 122 139
1.3026183682039953 -1.3067547333332548 6.160062819126295 61 45 56
-3.4255837905582385 1.3173902058179865 9.771165863826711 104 89 108
-2.124577204741037 1.150361696353704 7.938840025722321 118 83 89
0.08032456520990072 0.5391167755667932 6.679132737191042 64 24 32
-0.854773410721978 -1.1700752884148269 7.297558789013111 108 79 99
-0.016456024262464914 0.5230078939761957 6.754976218610648 63 33 43
-3.1223515769876333 0.23804326936300085 9.662705512803983 58 47 64
1.2579791004348586 1.091084196563689 5.887149023155157 134 113 128
1.427268071317293 -1.430283892255448 6.055119726390178 129 119 144
-1.9955097221232578 -2.6559784468733407 9.070708687464403 77 50 67
1.510490239858067 -1.040167081447798 5.9434118572889405 135 107 122
-4.55762832369467 2.291365220220062 10.561928825542056 111 99 123
-2.372761025286707 -2.301799621563753 9.370640689381066 88 70 84
-2.055357334236248 -1.014553770279209 8.923182785949363 56 44 54
1.5756624737956548 -0.5913013762020346 5.8484152035846675 66 49 59
1.003155121046578 1.503342863953706 6.057081223475789 40 28 32
-2.027018471613711 1.5035352095981995 6.0947899594752855 68 40 55
0.9610036253570272 0.5478448238570718 6.227778391310556 128 117 134
1.2391355476250914 -1.277270477818968 6.225138023568681 123 104 123
-2.6093934246668127 1.115518230349204 9.139310893757683 120 111 132
-3.0211265542358015 -0.3982143073425747 9.643739989870543 126 109 128
-3.862264195077301 -2.9490003869436068 10.5505419400969 106 113 155
-0.8477986677482884 1.3368788752577048 5.41577777694362 112 59 79
-4.803901998987715 -2.327362075704157 10.907971358878521 103 116 161
-0.7064595197252364 0.2876891765675059 7.219032036724985 122 105 85
0.0856120412012586 0.8383838829903749 6.151734933026576 150 119 137
1.1371745032998182 1.2879021579893593 5.980849033078555 75 58 77
1.3706036390562193 -0.1261054188827608 5.957508430540222 131 114 133
-2.2441860831934144 -0.3043358330761252 9.000339348980296 75 52 68
-2.4409460377990393 -0.25929946038790325 9.161774030588985 126 106 131
1.116464214224941 -0.8537561221856471 6.2596484166094415 60 42 56
-0.1445065378609435 -0.3187913608613808 6.949448177440575 94 69 88
1.7038119396561502 0.05921575371276059 5.678688745521281 63 53 62
1.4391986550613494 -1.4122102874970741 6.05276627687439 112 102 127
0.3602939659097523 -1.4606526599500578 6.954644330388128 75 54 71
0.5221906660765748 -1.0235625673490087 6.761684572230901 138 114 130
1.6945500608468063 -0.6013767575297394 5.741961940956023 62 46 57
-2.3777744366732265 -1.2647932809022768 9.247152701949569 67 47 58
1.1638662837295823 -0.14597496618060746 6.1594445894480865 53 38 43
1.2335557547850518 -0.8362063786855451 6.143103602604405 135 120 143
1.36129255647321 -0.14738617595409462 5.971517425317952 60 46 59
-0.6922106616511572 0.29580838035163604 7.23367430334228 84 60 50
-0.393607645399657 0.6675501166331781 6.854474475927145 61 26 32
1.780535697759095 -1.3434974449605903 5.753009945109795 120 97 117
-0.7811439548344786 1.3602744946048753 5.415752951192595 104 51 69
-0.28451358826653056 -1.2002545909425257 6.9722370836649885 99 70 90
1.955616910934105 1.2303881119822757 5.279025399135028 128 104 118
1.6983381082383164 -0.1638256858873742 5.698726920734084 106 89 107
-0.5545307140706375 -2.298427543142706 7.686380593849016 39 29 40
-0.695178342034413 0.31069024277066914 7.243036960591884 154 142 116
0.32993135566827114 -1.3445672290829795 6.9603749930873935 93 64 82
1.631759974938085 -0.5789584540823577 5.7953611678794505 125 108 127
-0.7974166120495237 1.520366984109926 5.394774683412934 83 46 63
1.3356165821789963 -0.3722542809561452 6.024267993442877 61 45 56
2.6774240165623144 0.525973834544461 5.691456397096863 117 125 172
1.0420075062741072 0.32056400259109746 6.179972324722272 74 60 77
1.0729603130226533 1.5885491725436174 5.986586895454815 109 103 139
0.9199559289226255 -1.9855218623014177 6.544970220269375 86 58 72
1.0740634647582843 -1.2117783413873764 6.325331458586156 90 67 75
1.22950081867204 -0.5749952585730107 6.139189154806619 69 48 53
-2.0607649867307964 -2.647576465780614 9.127030969883188 82 60 73
-0.05065786759134393 0.12337445775898888 6.828157066312665 68 26 36
-2.0717755617162776 -0.3094225683481254 8.843401259599581 75 53 65
0.9606101376742642 0.7417263074792778 6.171009605384686 142 120 133
-2.277655078374731 -0.0615551709268025 8.987096612033156 51 38 47
1.5469725887943404 1.0929931643410724 5.654056564127448 127 114 134
-3.8114983793450072 1.369019252601904 10.044129486246753 141 158 201
1.2588189635384657 1.0663239242396925 5.901480454714693 108 81 86
-2.934341815363389 -0.4528048679774103 9.584627903948677 122 107 130
-1.4591251714267115 -2.035578566498528 8.552420296480781 63 45 57
1.1540601752497284 -1.062439355534684 6.247047009774358 80 56 69
1.7392749702296673 1.060013800119798 5.489295327672051 128 115 132
0.8947296735392786 1.3199882681327404 6.156976304698433 108 103 125
-2.257935485168914 -1.4657373271117247 9.1302122392716 74 55 75
1.561845595417805 -1.3162854699480908 5.9423634705451684 81 62 81
-2.022706107559613 -1.7587332454532292 8.987709294486352 80 54 67
-0.08084373424474013 -0.34904238123130016 6.886586850118921 55 24 30
1.125000589148594 -1.5892295554813805 6.318327134351773 134 116 132
1.1211478701144806 -1.3564871230758802 6.307188845012248 91 64 83
1.5058740168910458 0.7506963770378957 5.727850184623898 98 68 78
0.46973384568556686 -1.6401465159791895 6.875247757966008 96 67 87
1.5692292076644583 0.47582445073981183 5.705589193375148 91 66 88
1.0423470211968733 -0.5653629906061517 6.317524026377317 123 120 137
-1.0897535325479784 -0.2240875290852438 7.37071851181377 106 68 81
1.0658911292372377 0.5398707748061625 6.129991757192265 126 113 139
-2.599030651610389 0.47317673919992087 9.182180017170749 74 60 73
-3.1196188121760287 -0.41871416146425594 9.722482115566343 136 119 138
-2.9363758108239852 -2.160841195887127 9.788359933629962 85 67 81
0.739131967874783 -1.9201843352715264 6.684936182260553 104 79 98
-0.923097644847354 -1.3835835928164895 7.2305317568560525 46 22 22
-0.2184743069540692 0.9424562325310444 6.398977698610871 55 40 45
1.4367496512256743 -1.077789261407688 5.98519144475714 120 102 114
0.22692124261361404 -2.0612432244912346 7.130320340537275 99 70 90
-2.866221893657471 1.1465188018136045 9.316030116540666 117 127 163
1.4395505937277007 1.4962284425583332 5.677680903266289 50 34 44
1.326295909188719 1.5027999476042635 5.780572083255826 61 45 56
1.06186625665767 1.3095835427429865 6.0510632205799215 131 129 150
1.1115010885975816 1.1671006252526577 5.996542089213567 137 124 142
-3.059342266176064 -0.41488102015277517 9.691549443974955 133 120 138
-2.747450906562234 -1.7175058557537402 9.58764305132677 77 60 79
-0.6846849047743971 0.1698116069314875 7.146759596216763 185 167 145
0.13098730096031574 1.4035447411923574 6.018926366063092 47 38 41
0.898341241541037 0.9669222472663354 6.2271958307060356 128 124 149
0.8819353353932755 0.14233867953117715 6.3385504390366405 67 50 66
1.1487648665570016 -1.7642446799356475 6.339833967930932 132 124 145
-1.5102768713231567 -2.466741250637621 8.64134185867243 85 60 81
0.08032456520990072 0.5391167755667932 6.679132737191042 64 24 32
-2.3878350997822184 -2.6992232872825124 9.398927858989593 75 56 75
-0.14171920761662468 -1.1416028025100915 6.8187929944810985 127 75 88
-2.804803393434473 -1.143293106456919 9.553046654514574 56 39 49
1.022215024597377 -1.4062302152055326 6.394302811018027 128 112 141
-3.9432838085776933 1.8689983859077757 10.024660991619742 38 48 73
-0.3022659768803469 -2.235931675551724 7.593351283119779 134 118 144
1.8534426328254692 -1.1275697073291664 5.663149226485498 81 64 82
-0.04941447858393136 -2.147518403403916 7.371799625023824 95 74 93
1.0244833535948579 1.3510932907129343 6.067333760784678 79 60 90
-2.0607649867307964 -2.647576465780614 9.127030969883188 82 60 73
-0.7684191205320702 0.9871557523651224 6.836238678507357 143 98 118
-1.1604870970560726 -2.3911470450976764 8.31215702501775 127 120 138
-1.0746717805057924 -0.9656395787793202 7.486980605400504 36 18 18
1.7620355034691977 -1.5852379563643206 5.802780203552825 45 29 42
1.8935452763952134 1.2084393977047208 5.330496261661223 134 110 123
-0.1672398204465001 0.9260466427231328 6.334787652252396 65 40 46
0.1393387993987355 0.8745528159502064 6.1024835033511815 67 35 46
-1.466809237148716 -2.6502617706045366 8.623176693564297 75 56 78
-1.1780516267274315 -2.4822966624360254 8.347230284091063 85 61 74
1.45819599152205 -1.8319520758620012 6.085069369286618 125 108 127
0.06886990698442194 -1.6830535753336406 7.207168876085544 139 121 145
0.09649975183262552 -0.8228213974956025 6.641508090165676 110 63 71
1.2509305756206472 -1.603833178935041 6.229125834012139 83 60 80
1.612949545709797 0.8973499258271816 5.633363816466133 92 64 87
-1.879845803493344 -1.2945471759009337 8.802836356316817 77 60 70
1.6594388672456726 -1.0832321779069505 5.821586706234445 119 108 124
0.9955127337613681 -1.0642627379824328 6.402211471682702 60 47 57
1.4663253684088968 1.1131060936685444 5.724426432247928 131 122 141
0.09417970773633222 0.2397817062160111 6.674780237646525 82 40 52
-0.256803676924274 1.0920732004447145 6.402222056519129 77 47 57
1.9617012358667507 -0.04502566142440584 5.449750598753929 131 108 126
-2.584240369612456 -0.05229313708618995 9.247128011281381 131 111 136
1.4437712994782277 -1.3007891025402312 6.042153679540206 58 44 67
1.7170980976854868 -1.8455969149834934 5.863276938402776 118 96 117
-1.1314793848809153 -2.359286241103 8.319483665181744 126 117 138
2.481642385490698 1.10242305985798 5.617098284325568 65 71 105
-0.7073834719849612 -0.5316306697908522 7.25181742354478 47 19 18
1.3982655362996375 -1.534482386531646 6.093062211998734 99 73 98
0.6383942267493934 -1.756294244979453 6.750839748355621 104 74 86
0.3329286858098509 -1.8170449527858523 7.017967047879392 58 40 62
0.8403837880320416 -1.8220131761885714 6.593518555575085 141 123 139
0.9854621993353365 0.13935204910717086 6.236787839158956 81 58 66
1.341381451472266 -0.3490490598814011 6.018087907262757 138 127 144
1.3563277970908252 0.3315313458984257 5.910182071026811 86 61 83
0.10536837310782965 0.507681405959991 6.673914143419776 65 28 35
1.2729528619578128 -1.5493575874840886 6.209158948546979 73 49 71
1.800832006194633 1.7356805634834633 5.195814617835373 159 176 248
-2.008905036881816 -1.2749106641932744 8.90079052321996 134 117 136
0.45196374797786604 -1.5179635612474343 6.884360872441518 77 60 76
1.60601770292081 0.6872078672805819 5.662424864473195 128 110 132
-0.08841255267635192 1.6747542637711512 5.938511929739231 105 77 92
-2.6572945075554864 0.924116899934287 9.199079449564543 58 45 55
-0.6276438714106626 0.5474971310766755 6.941230804487603 210 208 196
-0.38788778984658145 0.44875665109687457 6.891536579873397 66 29 37
0.5294542393099996 -1.2387622648326473 6.792381727976554 67 44 62
-1.2823469041802698 1.4254239370732324 5.495590670495435 80 43 60
1.3314971012973373 -0.33845464987961316 6.021000698220186 77 64 84
-1.8513705749220364 -2.3681234350001508 8.89658149252504 76 60 73
0.3835329727603119 -1.4800499520465058 6.943042703540936 73 56 75
-2.890839109220337 -2.1032280012210136 9.746339566213948 58 44 59
-2.9873249231855707 -1.8897410667236534 9.775804187623399 73 56 75
0.38560507245450204 -2.1294308918651934 7.008041754603091 136 117 139
-3.870022300352332 0.6895616751153588 10.155914196350647 33 45 85
1.0983767597516763 -1.2873197065904851 6.329479073178863 71 53 69
0.8655196527499006 -1.4081485453705886 6.52563151244187 87 63 76
0.8611280341413112 0.38640751072469975 6.320856586411715 77 52 58
-1.0809200153298342 -0.7483652239539427 7.55583733262982 59 23 25
1.3066778940760513 -1.048170512444224 6.142690230749569 134 120 143
-0.9591237582236796 -0.36938660763642434 7.457716302498634 113 69 82
0.8762694751627805 0.9703354209259979 6.2271819903421495 129 124 144
-0.45989327072889874 -1.2045459845817592 6.967985836404233 133 86 102
1.2071543424354685 -1.7889291095703983 6.2982938367777885 80 60 72
0.35642003273866735 -1.4843270646557047 6.957468144058733 132 113 133
1.2250666072473513 1.188650867434673 5.904503339467513 127 113 128
-0.6553317100398274 0.13688082310177416 7.161424616164151 158 142 119
0.7979605510826833 -0.7711911131261597 6.51254910383304 134 120 143
1.7205347838440372 -1.0815697953459806 5.775976747527875 58 45 65
-0.5923591967903601 0.4165927452073718 7.071990025635931 127 110 94
-0.9790772046436642 -2.396647321608083 8.196062721084035 66 44 57
1.0289763605909215 1.114187995225956 6.086476544213793 127 122 144
1.243989687857548 -1.3045263169787533 6.198155700087955 74 54 63
-3.573769780687961 2.319144057888434 9.456561757895269 82 88 122
-0.6310121038727193 -2.282545057299853 7.760184398948569 172 158 132
-1.466809237148716 -2.6502617706045366 8.623176693564297 75 56 78
0.6279627989050929 -0.9837595390454519 6.679460295663731 89 62 71
-0.7533870549943658 0.31247734403088084 7.224814137128534 83 53 43
-2.683516148776456 -0.8973871646080663 9.433780742849596 75 51 64
1.133948116915367 0.898333895954137 6.032385458081277 133 131 152
1.4220986535742677 0.342716658220007 5.866354375357793 122 111 125
1.7268160616198036 -1.5706674129769491 5.844348244156796 37 30 48
1.54792707503799 -0.8622628800133468 5.897523492580699 82 61 70
-0.782087739268068 0.42891459795868536 7.018668463883157 188 178 166
1.5153407976627629 0.4397904968132352 5.752309833178639 92 65 82
1.053416385465176 1.103545137670787 6.067257355254868 74 56 70
1.0816238491809547 1.5450873861924035 5.9911324584541665 104 95 112
1.5018289477851634 1.1136810305576892 5.688474941922562 125 112 138
0.8869993604775986 0.12982064540303098 6.336794862877794 44 32 46
1.6008278472396225 1.239044714242282 5.58897496313806 67 47 56
-0.12514341311319513 -1.9070039579600855 7.408287837970656 95 67 90
-0.9469213549295573 0.5094174114641675 7.042190152948417 138 137 135
0.40503842207199503 -2.149758416493089 6.998506081944309 95 64 80
-3.906845219398698 1.430962741206874 10.077664457151734 99 115 148
0.2975423058954281 0.9003202373112155 5.967378027164685 64 32 43
0.8345887756759138 -1.2149121122737048 6.524403473077083 89 66 82
-3.305757449198851 -1.0946165524378302 9.962890068852428 86 62 84
-1.1644984668122582 -2.3688570220291623 8.319465667182289 51 37 52
-0.4268819240325043 0.13295365853150773 6.931045577528947 150 100 111
-3.877605092631518 2.0862282069643343 9.997407729469927 19 23 52
1.1401317618733986 0.01323162248272418 6.141057473003645 59 42 61
1.7012929103932661 0.032437116019719395 5.659682535730578 128 110 132
0.07421983915145969 0.08661657271924417 6.735756976084028 62 29 36
-0.39027906460549233 0.5520881486405612 6.866126016868156 60 18 28
-2.7761966860184706 -2.139642112948116 9.642810899005495 128 115 132
1.0289763605909215 1.114187995225956 6.086476544213793 127 122 144
0.8273800721365664 -0.32023895102088 6.461698828736468 139 121 145
-0.40365121411157756 0.08119199739935379 6.9417814501981425 81 37 50
1.464448951134983 -1.850421631608739 6.073459960739229 81 57 79
-0.7332658273158023 -0.6562940441788149 7.275405198784367 72 33 38
-1.826307297305892 -0.5265392858493547 8.694730142678836 68 47 56
1.7166203950350123 -0.8952976945182612 5.756093999436863 94 69 91
1.1447829485615433 -1.2172319222831893 6.2859214454466725 84 59 78
1.2410467911368115 -0.02248068971907943 6.050872753535201 85 66 85
-0.949365871587541 -2.48508213943823 8.154186284538095 81 58 76
0.4175804762112573 -1.628548924546159 6.916138899191662 93 64 82
0.4660151897022659 -1.0102085687230657 6.8244195965130405 147 123 139
-2.3787748720549415 -2.13328684579941 9.339652931904919 88 66 79
-0.15450088534968628 0.23332352082589336 6.90503995580299 59 28 36
1.3696191687162358 1.2752605192695514 5.781343118058737 63 47 60
0.033688021143801525 0.06616937780564947 6.7668117338818785 90 41 45
-1.7865234662202374 1.3461296298191328 7.5149268981086985 86 53 62
-2.7984602997079193 0.7707237844530997 9.307765033741076 73 61 83
-1.0998807829364836 -0.642051905514006 7.49702755629057 51 23 22
-1.4020492120168586 -2.4471740173097603 8.53340722274894 132 114 136
1.3517591543151757 -1.348528879604219 6.1095752846020215 84 62 74
0.6109027374908074 -1.740501960466566 6.775775016287059 86 59 76
-0.912253294208615 -2.477333200590757 8.132012566433216 84 56 78
1.2015144181603659 -0.5607095497969641 6.158650482071414 119 110 129
1.3548332795774995 0.12441400815864029 5.953946505092985 132 113 135
-0.7324575720880955 0.2944267231367465 7.220371534891537 128 106 82
-0.15417575506748193 -1.0774694985015418 6.833755270537245 73 33 44
1.1357273232061118 1.10274993172674 5.9845536251762175 70 52 64
-2.904935919156376 -2.398759162385794 9.776377040940542 140 116 130
1.820321244061878 1.052466740785068 5.43017580404162 141 118 128
-0.6754885191780781 1.4625602015505226 5.416553290533618 157 109 131
-2.382094722407348 -1.9503039407955163 9.29869214020553 74 51 67
-3.881075004449124 -1.1848786889617005 10.375602128589213 108 120 160
-2.0029962220509137 -1.0167609456458535 8.873287159632532 81 58 74
-1.0817364680110604 -0.01607867287186518 7.497317638337689 55 25 27
1.741671045622388 0.2723075334784159 5.588635332120758 80 55 76
0.47592042410380053 -0.8832645018982375 6.776593322371767 111 75 89
-2.1204106261964846 -0.0889174208876133 8.861747549508006 89 62 77
1.9402562356522208 0.43893751603901093 5.40638723528434 81 54 69
1.0214925919711488 0.9584072772105916 6.108482169669155 63 46 64
1.800832006194633 1.7356805634834633 5.195814617835373 159 176 248
0.9763035706152986 -0.7537449696526288 6.356392694446742 134 122 142
-1.8026931252766074 -2.658562135328685 8.901428580734196 69 46 66
-1.2671903681480339 1.0385788704828072 7.261642759382867 79 38 52
0.5436846914620709 -1.71039452686456 6.818804264956675 135 116 136
0.32934587130701903 -0.4955259156380744 6.862256423660009 68 44 58
-0.7298105390857837 0.30680630305560264 7.2270636544938025 97 70 51
1.1124373707453001 0.7115698903402804 6.074110706821773 123 108 127
-0.8747538723926512 -0.4982860254259096 7.385339407987667 111 64 72
1.2400846726468653 1.2332557745438069 5.885234223423722 134 117 136
0.7930768664529655 -0.3130778254647268 6.449384029090475 148 124 146
2.6195535765405706 0.5341467442687036 5.7099251086919836 124 132 179
1.3605995551104362 1.201430370042172 5.795831682421818 97 69 91
0.6451765383046763 -1.7300159188238722 6.746799789421132 139 124 147
-2.247471039029234 -2.2854157128863952 9.234336445165845 82 61 78
1.1302424167411078 -1.2891435119158956 6.298680758520298 59 41 53
-0.8500012164958751 1.4312449710436779 5.40046755917894 113 58 77
-0.3415536194716279 -1.1590030882656697 6.965529195970372 54 20 21
0.5129399041814723 -1.352247882729952 6.8153918893481205 144 125 145
0.0922007765912538 -1.9368354964615853 7.2358088116103785 94 65 85
0.11318470197752954 0.3243770435386693 6.650182670166205 128 75 83
-2.6781266939247046 -1.723646540873192 9.524361973741012 79 58 77
-0.902352838567168 1.0453449461730357 6.952974778757942 75 42 61
-0.8108243156437598 0.5410547560437128 6.972163861061852 37 23 22
1.209011245901433 -0.8110966798455777 6.166082905612868 88 56 67
1.3106852110750808 -0.8192364410092939 6.0920642584846645 59 40 46
1.464741752163201 -1.3205446933821958 6.0363304658984855 62 51 68
0.6994839479683319 -1.1669758652521591 6.637746213003149 88 68 80
-1.4208862211987907 1.442067955641042 5.618468440774505 85 48 66
-3.878653091063903 1.414645733980591 10.083113688021548 23 27 62
0.8329007177242045 -0.7843563648813228 6.499979707690227 99 77 90
1.2904800283006685 1.4945717445436373 5.7908339277780385 49 33 44
-0.021170094429010005 0.3250344174533467 6.646732614997024 92 44 58
1.088066900580435 0.7246001736777339 6.076715853771028 139 131 154
-1.1644984668122582 -2.3688570220291623 8.319465667182289 51 37 52
1.547225535872297 -1.0638184686318435 5.923474879413108 54 42 54
-0.5301201195485938 0.8869064357283949 6.769240236759734 120 64 75
-2.5139860181837608 -1.5237132956079482 9.36871118436754 73 49 62
1.2256887557063096 -1.220811635126374 6.219986246772261 64 41 57
-1.3177417669623757 -2.199274430096886 8.449866185790032 76 63 83
1.216365264032154 -0.47426029937001685 6.125423226760015 76 60 73
-3.1312268557817546 1.0079960749615815 9.552823203565431 79 60 80
-1.188343588871569 -0.8184308163740143 7.527579180358733 67 28 33
0.7136223307785678 -2.080664568129545 6.723352428108008 94 67 86
1.1691665816443066 -1.9703739038521955 6.333568426307308 83 65 91
1.660748716355636 -0.1718350035748631 5.725101163383306 44 28 38
-2.7746801447703033 -2.3531962518826273 9.665532007513024 131 122 143
0.33442486200634863 -1.9271779507092883 7.016478281934496 88 76 100
-3.0926654825904683 -0.4324123478686162 9.73634491737917 73 57 70
-1.4356501556680812 -2.466274146449559 8.565654743131283 93 70 98
1.4342719060096787 -1.3109388672003335 6.037927963043596 123 120 139
0.42085115725737215 0.6351735792071154 6.21244188323004 144 97 113
-0.696385350238008 -2.3700766796607975 7.81698728034355 126 110 136
0.45690427471615885 -0.9851504559012579 6.824538873969573 92 65 82
-0.15709956364473135 -0.009234253927359597 6.929887706198002 64 31 42
1.1076977188199235 -0.2606029990367297 6.18875068396367 83 56 73
0.04008122991501824 1.2368882995399075 6.031280466472413 31 17 14
1.3391095826102302 0.7361010250107304 5.865484116986837 94 72 85
1.2024620197217821 0.35514443016049035 6.037146755520507 73 53 65
-0.08841255267635192 1.6747542637711512 5.938511929739231 105 77 92
0.5145081149814885 -1.4931037473945759 6.833899245809333 96 65 80
1.240448026399419 -1.796907118019203 6.275465238339466 80 63 81
-1.2177957314958852 1.2833924675850552 7.072470737063267 77 54 62
-1.9913176029647845 1.1090793298471013 7.8312113495770355 129 85 100
-2.222961503317903 -0.9092006306977757 9.040971128745099 73 51 63
1.2311516439007073 1.1745628889786544 5.900868036520228 88 61 76
-0.9000457788062474 -0.47514595961974543 7.408996278366119 50 21 23
1.209011245901433 -0.8110966798455777 6.166082905612868 88 56 67
-0.9312454491746696 1.4330143290341393 5.386099468755997 91 52 71
0.1450475480991271 1.5396271535375472 5.9916696695067255 61 35 46
-0.8701875379898184 0.0468929552886517 7.224845717729757 202 194 175
1.6245893766000554 -0.17279102401559437 5.759752081713632 59 39 50
-1.7466226073915023 1.4063468571227709 5.8850572628001405 84 41 58
1.9436945935545973 -1.654775413968098 5.653833458934683 90 63 82
-0.00849660109757243 0.33258798557070746 6.6346103671379035 141 94 104
-2.7714167293896512 -2.103947056331004 9.631705954713617 72 58 71
1.427268071317293 -1.430283892255448 6.055119726390178 129 119 144
-2.6435358124951693 0.4856451300120164 9.231285391050971 68 51 67
0.9999989006315854 1.1219798240183436 6.1059489725563925 62 44 66
1.6923194607712901 1.031095207759055 5.535023096238371 135 117 133
1.2914297801854768 -1.6132874574147804 6.1905176288660835 104 71 88
-0.8552645989819988 1.5210375809294656 5.388507143242996 84 49 69
-2.382094722407348 -1.9503039407955163 9.29869214020553 74 51 67
-0.47625255678268247 0.568756231413463 6.9376301494885135 133 77 86
-0.5867493947879954 -2.2611566790124784 7.711385534422767 160 145 126
-2.581868058563302 -0.43712475373761406 9.26794685399278 124 110 133
1.1931916537007683 -1.6325635776079053 6.267308037304577 132 111 130
0.6856875910511826 -0.7060563145041795 6.586013718770337 82 60 81
0.8549271311006905 -0.7724610458333372 6.464482931318728 79 57 70
1.4558640623710308 0.9301087882863246 5.7682048811427205 124 117 135
1.7638061471660091 0.40071600941667235 5.551963215646776 99 73 86
-1.1588313982645901 -0.7858176265037986 7.482542931332145 127 76 93
1.4706192035655612 -1.3140398034915395 6.032967880582018 70 57 77
1.0643260745923002 -0.1285351132416273 6.211761655182849 66 45 50
-0.41585196403792707 -0.9777793201670001 6.84394468430726 74 32 44
-0.5569594326703085 0.968448329131268 6.670211378709817 48 32 42
1.1865758571142047 -1.6136411321927455 6.280448787540341 85 56 76
-3.8736509821352936 -1.412860174952078 10.396294124837457 69 74 116
-0.7189435005876592 1.4326465694066683 5.415656352170222 76 38 59
1.314652787354267 -0.7853465913959536 6.096557654617486 116 115 131
1.131852423645112 -1.8136225375705708 6.359247967563286 80 63 82
-0.40280322794568935 0.4720799993531163 6.9010541302726285 85 42 52
0.8447931595944799 -1.9458430794210824 6.621834103534785 78 53 72
-0.8588916708877808 0.42033953652677447 7.026912820311453 96 86 87
-1.9906219005424404 0.8638428440576907 8.15785787088627 140 96 109
-0.8000624851360252 0.18903018292240925 7.1432822023714095 177 163 137
0.40786973545044497 -1.7292234757947467 6.9525293198946905 97 64 81
0.7234573372546643 -1.384785029414073 6.657619748745971 97 71 84
1.0695069077588748 -1.7766471188609694 6.399370573411845 140 116 130
-0.6023206909867276 1.4661397319792884 5.4098729898303874 89 46 63
-1.6789969420120192 1.4613439116214435 5.821554184814425 95 47 61
-1.5695248005499327 -1.958909322448859 8.617555226761686 60 46 72
0.23504282267850474 0.6046991984944156 6.5390700944262194 66 35 43
-2.097471204190093 -0.9189796529329557 8.93101766443766 72 55 65
1.291153331202733 0.8577675959653684 5.865831395788448 81 120 213
1.7243800352055902 -0.18064111592438956 5.674903040653404 31 21 32
0.23504282267850474 0.6046991984944156 6.5390700944262194 66 35 43
-2.128273075304131 -0.516531495710398 8.925013584563908 67 49 63
-1.3581822501017577 1.0448940190617741 7.3133580093359685 74 37 55
1.0456846110066176 1.1266436624481726 6.075680266087089 66 50 76
-0.818047498626506 -0.563597518310982 7.342394034653185 58 27 33
0.8869993604775986 0.12982064540303098 6.336794862877794 44 32 46
-2.190475599785066 -1.513942032774577 9.094042807896772 133 116 132
2.6774240165623144 0.525973834544461 5.691456397096863 117 125 172
1.696188777071453 0.6675909472893496 5.584848586829539 143 125 137
1.504169962663687 0.669342313355075 5.742545886523944 67 50 60
1.0047456165540596 1.3256504730991123 6.082033339802606 118 110 133
0.47459591466100987 0.8600245562902504 5.818269736401104 66 36 44
1.496427840838997 0.3221501234482723 5.798617703513685 55 39 50
0.8015863483215774 -1.9783122505641115 6.653795537957772 85 58 75
1.022051641127895 -1.0569349955560428 6.360560393895964 123 101 114
-3.0148935318259915 -0.4386935497224126 9.651731141486387 66 52 65
-1.822307801222792 1.1894339164360772 7.694612445923668 67 29 42
1.5096142206255607 0.09198624307504877 5.814502216857046 82 55 62
1.6539141503657349 -1.821904102524014 5.922741961458007 71 49 70
-0.1325138171032658 0.3871301680515194 6.8596696420692975 63 22 30
-4.548964223507639 2.314830003361355 9.749423021814708 17 45 22
0.0435113179613557 1.6822127777341065 6.014016521305414 90 57 68
-1.5135464554265536 -2.027425550627483 8.585241487273414 88 66 79
-0.6801389968623407 0.273279184339114 7.223028756789976 115 94 75
1.1498366934010078 0.509039140108199 6.076702860368685 121 116 138
1.1357273232061118 1.10274993172674 5.9845536251762175 70 52 64
1.6290923651689826 1.2343484386786985 5.57382543204831 77 57 66
1.4583128289204739 0.3620429834860818 5.821801723144669 148 127 144
1.34489600103783 -0.3245163029917791 6.007318577095686 67 49 71
-1.167581014264126 0.7441895994869343 7.497722307542625 64 21 30
-1.0134284197351728 1.1069708673903602 7.034709842716612 84 41 58
0.7488455306940831 -1.3903323787531874 6.614834556002245 82 56 69
1.6008278472396225 1.239044714242282 5.58897496313806 67 47 56
1.149231869429526 0.493500604084837 6.068069971372026 70 56 73
0.8408868546261383 -1.982730212707397 6.620363373286751 92 63 81
0.03431491960725278 -0.11412594512773029 6.788187353453844 67 29 28
-2.900172982347432 1.3869844812989853 9.343666006315456 63 50 68
1.099613385854577 -0.7664598725131193 6.264529236915245 133 124 145
-1.419057187270878 1.1484484320084747 7.375845531759415 81 39 53
-2.2553030073088935 1.5529874160996697 6.287399910066305 95 51 68
-2.2404616915889206 -0.07517585565842193 8.98039020785543 60 39 54
1.4103800529735033 -1.897323853147399 6.126379396540881 79 62 81
-0.8162636265427836 -2.388433303400651 8.033648737593655 72 52 64
0.8246355768481769 -1.2606393448579731 6.54270560966314 89 65 79
-2.579471434768318 -0.46877210311008194 9.292240441561322 58 46 58
1.707437765223826 -1.8346333119826055 5.884351528199588 58 42 55
-1.4356501556680812 -2.466274146449559 8.565654743131283 93 70 98
-0.7011523297448082 -0.9381808248849169 7.0359690137812585 61 31 31
0.9880246416011847 -1.0230935269463048 6.417916793343576 56 36 45
-3.869995099708755 2.29877523448567 9.911193873120231 123 111 133
1.1049243025928257 -0.7893332130737458 6.273549319668992 74 60 75
0.9082775149826541 0.3790917965799693 6.282496334023136 82 56 67
