ply
format ascii 1.0
element vertex 709
property float x
property float y
property float z
property uchar red
property uchar green
property uchar blue
end_header
-0.13840031716710172 0.5867424601550688 5.1427758450523635 109 74 94
0.7339798777021712 0.3837939387724712 4.9279676565901065 139 124 147
-1.4596896053160244 -0.8948434066941736 7.31739787129816 132 113 132
-0.972898232548715 0.4046082319815559 6.283037948353917 59 26 37
0.15055679150183454 0.2358052836978815 5.297098999931877 57 26 34
-1.789941641171021 1.0298313216626132 5.27886417452206 89 39 50
-2.192121374151751 1.246130027933445 7.853065302867569 130 120 144
-1.2657836889145604 -0.9526608139355999 7.12781557463731 92 63 81
-0.20200750571050435 0.39935967596677263 5.6564927706437516 73 33 42
-0.222966188171395 0.21011694693680885 5.686144610903695 133 82 89
-2.0852301493634626 -0.7628210461825964 7.964088745391718 51 37 50
-1.8605040495934582 -1.0945334216861649 7.751242181692458 80 58 71
0.1897575940004229 0.09696438576970429 5.119996352862543 74 32 34
0.9186589918469574 -0.8364162737770678 4.856176536198126 107 76 92
0.879737551390567 -1.3796631845214253 4.930463616261935 145 127 149
-0.9365723216581994 0.1748570457260525 6.258361707228344 54 31 39
0.627046813206817 -0.942825170153047 5.162473917015932 91 67 89
-2.1273299176948663 -0.2924876357983073 7.939481356264681 87 67 92
-0.425465919972549 0.03208112594742057 5.742016478422282 134 82 95
-0.8188710648279738 -0.0025429250548536296 6.142174004074744 152 131 112
0.7198839934724021 0.59313291711476 4.923152914972767 136 110 119
0.9668433964509252 -0.43995293619288073 4.773063022838237 88 60 75
-1.251052224134268 -1.1869046452912257 7.130247686404937 103 70 77
-1.9103611815630999 0.49457906148948305 7.667338188473799 62 47 66
-1.4800903164823338 -0.5161583955543728 7.313999233494834 50 42 63
-1.9103611815630999 0.49457906148948305 7.667338188473799 62 47 66
-2.031276694362664 0.1564008195839294 7.797898362896109 62 48 63
-1.226649317342678 1.2421283146431925 4.62492217772678 172 131 161
0.7977022481657691 0.15865755599069278 4.892551881754009 76 57 79
-1.7439764676922396 0.40413215137219255 7.478231305188426 116 99 117
-1.2688942945037422 -0.15822363899878394 6.778329503236222 70 28 32
-0.4617897988002121 0.758208150532769 5.4702496605747415 76 42 56
-1.2688942945037422 -0.15822363899878394 6.778329503236222 70 28 32
-0.9948222036328623 0.17249684672408838 6.499231969169595 54 28 37
-1.5774354147048562 0.4330246321543367 7.300221979076273 118 94 108
1.0293772297258303 1.0520842338780005 4.553166895328711 107 86 105
1.1149563858646374 -1.3101873471870722 4.68752803254236 91 77 103
1.1743768776173054 1.1008047269326102 4.420775077835365 115 112 131
-1.411282748333628 1.4015329522348032 4.780183470476902 71 54 70
-1.313277323211289 -0.21264594243525606 7.101001895690131 144 117 132
1.1050121130333133 -1.0841578724267371 4.661425435971362 109 85 107
0.37784466839465614 -1.3350079056088082 5.466152657170949 137 129 152
-2.1273299176948663 -0.2924876357983073 7.939481356264681 87 67 92
-1.8482435014231706 1.4511567751528747 5.207849761682158 139 154 177
-0.6233056186894786 0.7605315022571063 5.63098090566267 82 48 64
-1.1966822299834465 0.08904188764666537 6.728078961913368 55 28 37
0.9273684427287341 -0.02114398878370661 4.754374527320891 119 101 123
-1.0513239181436251 -0.8428972051977082 6.280696915802243 140 93 109
-1.7127674049516415 -1.0968268216328985 7.620801592034187 71 51 60
-1.6949693179942436 -0.8919287258266787 7.569876351622373 128 121 137
-1.2381818520137735 1.1442693999482236 4.704660224674029 78 42 54
-0.8300266409278744 -0.46132469655221264 6.203757643012705 62 29 40
0.9496591042068017 0.1936859967153111 4.719548106764302 123 100 120
-0.41214676341048173 0.024211546160107043 5.727280632018139 59 23 35
-0.7692981735158582 -0.16244010433947825 6.123605058329617 173 160 141
-1.7196947087196655 -0.39320828006572117 7.546592470150517 64 52 76
-1.474604212138515 -0.6363209426675136 7.315487142237153 87 66 85
-1.216255518820079 1.0705236397498505 4.686464869916703 94 44 55
-1.3137841686454985 0.5319553916921869 6.786337784464253 52 22 32
-1.2950192094591342 -1.1944576676045573 7.180091422100139 105 73 86
-1.1580497151823759 -0.008167256565434695 6.6721037158373 53 26 33
-2.1519058742482717 1.2451806256738995 7.813477090757841 126 114 134
0.2334944597551307 -1.4422531014914912 5.610042873942887 100 74 101
0.9463148509072866 -0.03938584691434844 4.7738728604762635 70 47 57
-1.0065093176754363 0.6674240928244395 6.128411056999254 81 48 55
-0.43944533886910253 0.6478248715616295 5.4610124372094315 64 43 50
-1.3021266601156263 -1.0406831045664908 7.1821519312621955 85 70 93
0.7477041072524819 1.1686668500229511 4.85048172122925 78 54 70
-1.4280115207612556 -0.8277671189088678 7.2742537550993385 65 47 59
0.19326413706302958 -1.3847877581213073 5.655948011853843 99 75 101
-1.5684627940026448 -0.1568501446650343 7.351308684113472 139 121 137
0.5376387427125925 -1.0977988780244772 5.292855374564258 116 90 101
0.8152003780051114 -0.6223778388356183 4.943828551074736 91 69 82
1.20752098061785 -0.6561179602566634 4.527753401563361 110 82 104
-1.7522747661781415 -0.8542701101135773 7.615294184768377 116 98 112
0.9057000478935389 -0.9902003328263707 4.8687078020650825 74 63 80
-2.192121374151751 1.246130027933445 7.853065302867569 130 120 144
-0.5624163626116674 -0.7256464995646629 5.766651898226165 163 110 128
0.8473153410444315 -0.3832434145444352 4.88379769234247 79 57 80
-1.7885500099470037 0.8694628056058221 6.809353066982622 116 75 83
0.6524577694947002 -1.173190676926963 5.164256573882285 124 115 132
-0.8073569613421777 0.23350513011429586 5.895433545135118 123 112 118
-1.4441544621533722 -0.5090665141261727 7.266298074511927 77 58 80
1.1172435335704578 -0.1413400064187075 4.583128173749824 90 66 88
0.38406311293774836 -1.2175884014177214 5.454578835999412 151 126 148
-2.0061957952435843 1.420344452689946 7.65911579565214 117 118 138
0.827637602851609 0.36904181825942883 4.83086211577896 80 56 78
-1.7460538601534723 -1.0764017324592166 7.637207268497413 112 92 103
0.7633233099278038 -1.4991095433466706 5.067227502619194 88 67 98
0.29702285697029684 -1.385908825657654 5.5390078311457565 99 70 92
-0.9146348459830824 0.40252179564146173 6.219741066046466 132 79 89
-0.43492288041581306 0.25923321618992495 5.740182081824268 88 45 62
-1.7165517717589676 1.006985315726869 5.207019183968602 82 45 62
-1.5555183245834814 -0.8225254685288841 7.413223900830945 73 56 66
-0.7922128681555374 -1.0494225093936347 6.073882311375516 76 40 54
-1.4739140798002905 -0.6453782051477238 7.31171211347755 134 113 130
-1.4624496962882143 0.9826114879722071 4.949222754971935 79 42 59
0.9050080543007909 -0.3679813006190724 4.821855546326687 137 120 136
1.1097010138277672 -0.09525077183745893 4.5819754598928455 139 122 141
0.8260304119112146 -1.184171786522905 4.982764626993699 71 55 68
0.8124706808454715 -0.7840867203371563 4.948613970578381 72 56 69
1.1058535194664452 -1.1152506668724709 4.671491700818289 107 83 105
1.2207868453879542 -0.23024882488365492 4.472270207748668 140 118 139
0.8473132597105539 -1.0012706404482299 4.942067594194626 76 64 84
-0.9577875497266257 1.2615613174669098 4.581209881747217 123 79 102
-1.7908563993617461 0.8859664769120964 6.802857509598307 37 26 30
1.1513402235552181 -1.209418108408191 4.664653896153771 66 48 70
-2.2299768772764157 1.2513276103646667 7.887654547174973 110 106 131
-1.6782715787274531 1.3589590634567186 6.631574336954368 26 25 21
-2.139987476280905 0.09532711072184177 7.93462364267343 69 60 81
0.19586542104617927 -1.455339466962591 5.658835339821859 95 72 98
-2.0990071234414054 0.5227637530239403 7.855037612144242 79 72 90
-1.8119068584917206 0.7376060568820682 7.537266772088345 50 37 54
-1.8771484900584658 0.6631820437881798 7.590190880918107 137 120 136
-1.5453988807558359 -0.620733173526279 7.385510447573394 71 58 75
-0.9620340712015287 0.42129580953400675 6.272831326297289 69 36 45
-2.0072044746829842 0.8364340930231927 7.698067354843277 164 181 251
0.1962574602602458 -1.4044652142026184 5.651499198773168 89 71 95
-0.4866961904977656 0.19957768552831479 5.794660966273371 97 49 63
-1.778476613137014 1.3314796807460016 7.430545704557948 58 42 53
0.733635356838359 -1.3797402441891338 5.116001081181152 98 75 93
0.9714479704146244 0.49432010000886084 4.662115641711308 99 68 83
0.2478827818656062 -1.3852901030296696 5.591613028172517 109 76 103
0.6100668242544514 -0.942346262301241 5.187824094071384 88 69 91
0.8152003780051114 -0.6223778388356183 4.943828551074736 91 69 82
-1.2853116584518083 1.0430627569755146 4.762047486581343 83 50 67
-1.6409333678767328 0.6909082031892978 7.3467172877938225 104 90 113
0.9178795208207228 -0.5870671451928953 4.849574265098102 139 124 147
-1.5355814454205488 -0.6691044217439918 7.378246732745157 131 116 135
-1.0741439820846617 -0.84067156407291 6.289189186495813 150 97 113
1.2076321802162462 -0.2524485872973222 4.488658782692247 144 127 146
1.189777380169727 0.7471009065800931 4.409898244346323 151 131 143
-2.1763071763786797 0.05236789918886331 7.969310905730477 34 31 48
-0.18570171242520356 0.16892477023185284 5.585929728694666 129 78 87
-1.7593173678056306 0.7611332690386651 6.785231922596343 133 86 104
-1.0035884266356743 0.40728447695309755 6.311810851326369 58 25 36
-1.5441299745378185 0.7389251284807896 6.569594078518657 138 93 116
-1.797778795724035 0.7464777463277693 7.5124521725581435 56 43 61
-0.02024101615111798 0.7279031558028511 5.012884614625597 97 63 79
0.870624700431658 0.8518334991711904 4.743705922926626 162 141 160
-0.0758597016144208 0.7003387750944451 5.063933290000694 84 46 61
-1.8822132142685344 0.5129763555417269 7.636619447453788 88 65 75
-2.002913013110985 1.111054780676111 7.6633255507199864 124 118 146
-1.8543908994992384 -0.44463248927430005 7.689326988615383 44 41 62
-1.2008803251216071 -1.139651245744406 7.070733233654626 144 125 145
-1.7196947087196655 -0.39320828006572117 7.546592470150517 64 52 76
0.13369082729666099 -1.2908815626290444 5.707319172879458 94 69 91
-1.2321915982092118 0.9486011239270079 6.1345609125757665 116 70 81
-1.9892355807358437 -0.32608023817097154 7.7969438037391425 68 50 76
1.1142770017692674 0.16420418145589213 4.56995170320142 133 120 140
-0.9003119242530742 0.39518032855710833 6.2066565830662945 56 22 36
-1.1866102053294865 0.8367380004604998 6.205388970094661 103 52 71
0.6254543501480221 -0.9557228640623634 5.168785803318304 132 120 140
-2.186684513275717 -0.4330948506297448 8.024458405925225 71 58 68
-0.2946577461491333 0.6519301410178141 5.300572192434125 139 97 109
-1.3930806017261463 -0.4652479978196687 7.221392699936018 75 60 79
-0.9573282227656882 0.3750987881005322 6.255714590902417 159 103 114
-1.9062303235910991 0.05419589260899252 7.699662041024879 44 36 51
1.0951646003339874 -0.18562161431220975 4.607278351320139 148 131 150
-1.3378475350289172 -0.35101090142896385 7.138685075001049 68 42 53
0.75720558245914 -0.48098870050815257 4.989707208374697 83 58 77
-1.469172989302273 -0.5269897469242975 7.303373065540605 116 112 129
-1.7417488583805194 -0.31208416457182725 7.56670979680771 137 118 137
-0.7356971404136545 -1.319141884351545 6.002381117269674 148 98 110
0.7551088312177089 0.2730203800100356 4.9307321718127515 84 67 85
0.9220645211820678 0.17850339149443237 4.75079262846594 147 125 146
-1.1786287404229432 0.2718044785809708 6.5814627571278095 79 37 49
0.47022927140304926 -1.1395146080075063 5.350485679003842 96 72 94
-1.6631536969157925 0.7135119835473334 7.3644083210104085 56 47 50
0.9382921609125924 0.6969733327296488 4.686990478800164 66 43 61
-0.6117197340239244 -0.8842412601974823 5.8205692239074995 76 31 52
0.22976338802087556 -0.7025800648109773 5.554859288892554 136 117 137
-0.15703855361967967 -0.3925068025271854 5.639151202003447 124 78 89
-0.222966188171395 0.21011694693680885 5.686144610903695 133 82 89
-1.2229632218997677 1.0821360118122374 4.692470588962496 144 96 112
-1.4158291184693579 -0.1550080839429044 7.206638782291899 81 59 82
0.8833335577123156 1.1068262746887354 4.7229945484995195 82 61 76
0.6524577694947002 -1.173190676926963 5.164256573882285 124 115 132
-1.0526701043323783 -0.6881559575723983 6.27767413399732 81 34 44
-1.3137841686454985 0.5319553916921869 6.786337784464253 52 22 32
-1.7205674224646932 1.0945608607727078 7.383765940001736 54 41 58
0.1381736619857998 0.584986561120091 4.849696998820584 137 98 116
-1.647489540753865 0.8222843858049763 7.3450159438870894 46 34 34
-1.9873112339723453 1.3175435357630545 5.384612526669996 164 116 140
1.103335915718682 -0.10818669975289719 4.592686919684333 90 65 87
0.5948411240062615 -1.551814498734114 5.261386033764234 106 80 105
-1.9752375544124088 1.547235128191286 7.549732388841541 83 74 95
0.478095187595741 -1.6945306147266015 5.394829397234059 80 56 82
1.0276823960446906 -0.8495411008549447 4.736478937624688 100 68 91
0.6713528775523004 0.4832746142897433 4.984108144067164 102 74 97
-0.5235813691957256 -0.7909182577389565 5.761003893953241 82 39 46
-0.8818811313862088 -0.3433231330906659 6.251443693537485 139 79 89
0.7129385973924416 -1.1652527233868384 5.103139135679474 77 65 79
-0.6452933985542273 -0.08441163979369551 6.022227321107967 192 181 159
-0.5139712545611971 0.03562996560606443 5.833075476917751 63 27 37
-1.3021266601156263 -1.0406831045664908 7.1821519312621955 85 70 93
-0.5929321467180462 -0.8809167521150179 5.795714206674401 79 43 55
0.6291471057084871 -1.1658475773083465 5.191588876427568 100 71 91
0.6035679905987492 -0.9820352018850796 5.199577565959663 86 68 82
0.01890553820712377 0.6290902951978647 4.977258457738743 80 37 54
-2.0124141242830267 0.09128205537978343 7.7897633027706785 122 108 133
0.7615146502024548 -1.291750144252244 5.067754311030132 96 70 95
0.8645562124876677 1.0156853301144007 4.730970245949472 95 70 89
-1.5425012138191427 0.8785246864411149 6.561814374990232 59 33 42
0.19774161710745802 -1.489878014627524 5.669703031800508 69 54 77
0.8989968023035342 -1.3281096665423622 4.915047678248151 94 66 89
0.40487173345654554 -1.145606358583935 5.414948682512866 90 71 99
-1.8716151144886017 1.0628887035850298 7.54875465630575 117 99 115
-1.0210490854511407 0.46567747254308023 6.471847387060532 53 27 36
0.8200020039615382 0.5175462157016274 4.804734332841377 84 130 224
-0.7302125615619461 -1.3268579613925837 5.985958617369158 80 29 46
0.5787655295556418 0.3275805388199418 5.106367493621334 138 125 145
0.9424759945776219 0.680121328177582 4.675459236894735 134 118 131
-1.0727293434969647 -0.7491376052245146 6.317155301642545 146 99 115
0.5656295735832658 -0.37410959554162565 5.177759109525329 156 137 159
-2.086901116465383 0.527017236011629 7.825030243472374 126 112 129
-1.6803371277364108 1.1562153113489506 7.350213535006338 86 83 102
-1.1214463543205397 -0.3227542246161688 6.639391044737157 70 33 41
0.12455170844671436 -1.565123421860476 5.74252593593293 92 67 88
0.31466510964091476 -1.2338529389213009 5.507549189809766 102 74 96
0.8172771658424538 0.47472112251704535 4.808151434632517 85 132 224
-0.5656448624772947 0.6940363974131423 5.576702944621026 63 33 45
0.5792436352931685 -1.4465503928175283 5.265205632906497 82 62 89
-1.9631139747022108 0.9631410074918285 7.652955622870273 49 37 51
-1.8365972672195727 0.6554368620364988 7.548864888516804 109 100 117
0.7199089695916134 -1.1307836657292405 5.085535748697468 144 125 144
0.779640837466261 -1.4685323713435958 5.049348934609286 90 70 98
-0.9733200562757305 -0.8408975228695719 6.219288775859609 142 95 113
-1.6030665208114674 -0.8800033703026535 7.455818567274522 72 49 65
0.6805280612242187 -0.8126767727542153 5.1037003527796045 73 54 74
-0.47686592650137016 -0.8967187577443216 5.703303403874397 148 107 125
-1.8340710487142005 -1.117072714090918 7.747455266149792 65 58 74
0.25600236322942355 -1.1154033009887678 5.567873596132672 78 53 75
0.6567762958919493 -1.398778708327201 5.16184496811128 95 69 94
0.645108210058543 -1.2791817946426478 5.184276094986212 77 58 77
-0.7677565594110406 0.04369330200896117 5.987211922793445 199 184 155
-1.2352941394057042 0.33814704755906083 6.726599002972337 57 30 39
-0.6839235285583274 -0.6227872513860854 6.070515517920503 88 42 53
0.7374265724153166 0.16016090767148025 4.941710719185411 137 123 140
0.724699570490186 0.6094332321682617 4.93205871025669 75 52 62
-0.9801011078761172 0.2522096684325375 6.305581513292619 86 45 59
-0.5543326647728803 -0.8932965148964158 5.759541651829926 151 100 117
0.7386088062064589 -0.43002191958482067 4.99611249799595 72 64 77
-0.10425154322444975 0.2314197935747967 5.543357750874886 40 15 19
-0.0019269743274651849 0.6508560074814695 5.002363397659796 60 37 43
-1.600094057162492 -0.8145297393126424 7.471715843375456 47 40 56
0.47022927140304926 -1.1395146080075063 5.350485679003842 96 72 94
0.6812894366065917 -1.1319555595159 5.113871150910632 95 70 89
0.7914800668430588 -0.025072921412267395 4.921680146459797 123 118 141
-0.8143858482763441 0.014637669139321248 6.1362636162622595 153 132 113
0.5236401158176772 -1.5453752184838954 5.319847482023136 102 71 89
0.3982376687320778 -0.8786682764060102 5.394801879487209 101 68 89
0.7351755407551493 0.592268684276936 4.87213223966907 45 88 200
-0.46257052522961034 0.32150696654442845 5.742751049300156 164 112 125
0.6840676031520373 -1.4132161474415827 5.144232294016603 143 125 141
0.8280130938283384 0.13352970368415404 4.855359258857044 84 60 74
-2.211435006271973 0.6868471588867999 7.928353382892325 136 124 144
-2.182893811483937 1.2460772322873774 7.8350364572559705 120 120 144
-1.6816412820924185 0.026569029492183805 7.475730452960361 47 37 48
1.11794991634519 0.1800206510342621 4.555828398416201 150 133 151
-1.0654771615495424 -1.1024481702979467 6.931533941036315 45 31 54
-2.18144848209997 0.06696701090045211 7.97505042558176 119 115 142
-0.6541496469233843 -0.08809009934932725 6.03649762843903 202 186 160
1.055120088622514 0.8947921208184006 4.562982987997491 80 58 70
0.13891784110511476 0.3300307056300527 5.152735181977954 157 112 132
0.19774161710745802 -1.489878014627524 5.669703031800508 69 54 77
0.5358089923687954 -0.9386968129313179 5.267836015442152 104 71 92
-0.8693138238274842 -0.5043754285176172 6.243270678577525 63 32 40
-0.4047557308849256 -0.12670181397396968 5.7320490211012745 61 28 39
-1.7926602409334653 0.299626573471772 7.537803280991813 127 111 137
-1.6001509381413848 0.11819518398965088 7.368522145808439 129 114 137
0.7199089695916134 -1.1307836657292405 5.085535748697468 144 125 144
-1.2186156085534705 1.265940127491892 4.601712242250588 70 37 46
1.1124559895131225 -1.3623246989317777 4.696196463525332 73 56 88
0.7525978024467501 -0.45624694571086544 5.009367492117608 136 112 134
1.0975949035432924 -0.13505308931068236 4.60392043902156 147 124 140
-1.5647483760678507 0.7262814671597276 6.730866103877234 82 56 55
1.2150896893704293 -0.49518256685463935 4.498781593136632 143 120 138
0.8741331207756006 0.8606110416340662 4.740848774478103 115 86 106
1.099929314977986 -0.8030420368328806 4.6615047981627935 99 74 96
0.478095187595741 -1.6945306147266015 5.394829397234059 80 56 82
0.9139529662764337 0.9125558837322941 4.694899559402679 95 71 87
0.6992095166130448 0.394711767266236 4.968215251852291 140 121 140
0.19586542104617927 -1.455339466962591 5.658835339821859 95 72 98
-1.6468345495126184 -0.3376463509896119 7.465405877368672 71 51 63
-1.7994805083510808 0.737746365564973 7.508735954355745 108 95 113
-1.933882940202571 1.1453925264753537 5.419529824046159 92 48 61
0.1759175446705672 -1.268390511298272 5.669279861896101 135 117 139
0.6088235455546411 0.4280381024366818 5.056419588826125 85 62 82
0.8966308179098756 -0.35449394134752626 4.829073053891581 90 64 77
-1.928733346233395 0.49290821359522574 7.661417087306821 78 64 79
1.1811497553132757 1.090191715203536 4.410837913203392 73 58 77
-1.0210490854511407 0.46567747254308023 6.471847387060532 53 27 36
-0.42084678671582354 0.3454263565457444 5.7122814186976125 143 92 101
-1.4789578222003101 -1.1153294913847265 7.367546488288787 66 56 65
1.1402918838591831 -1.418966182080802 4.669318328603498 77 58 78
0.9086911435942395 -0.4332039537926 4.831554702554764 96 66 78
1.2521380688320634 0.30901739854908905 4.393107458884621 152 128 141
-1.95332133928836 1.4053764099981856 4.7161699765857215 123 138 161
-1.5025171559207942 0.5019071754236606 6.89946545404127 139 94 114
1.1441943126734768 0.9880140400002126 4.4512292001124205 102 77 98
-1.8530566655662153 1.004983933575499 5.346778336047916 63 35 49
-1.49808161099519 0.7207342825158002 6.711224926074857 77 58 64
-1.4184098215064391 -0.7137861177802192 7.282417080997129 28 24 41
0.6976616043293775 -0.04777414686399083 5.012563949591635 84 56 79
-1.0519250314018533 -0.2735910959588766 6.590159995356041 48 22 31
-1.49808161099519 0.7207342825158002 6.711224926074857 77 58 64
-0.7922128681555374 -1.0494225093936347 6.073882311375516 76 40 54
-1.5673712672157059 0.28981214590170806 6.938771419161173 54 25 27
-2.0057163800546567 0.7243245260050357 7.715283178064514 171 189 255
-0.9630546048229005 0.060499106944469506 6.283397203766008 155 102 118
-1.7224751619469176 -0.45576992235925967 7.555952349925331 131 119 143
-0.5796477918887938 -0.7236876708408813 5.787109888219006 160 107 125
-1.7504286344134634 -0.8628397120466472 7.61671799787012 59 46 63
-1.674443819505432 0.7304752398648378 7.38500561811895 50 34 45
-0.5543326647728803 -0.8932965148964158 5.759541651829926 151 100 117
-0.6386716676103205 0.3516239013849651 5.814294329777679 184 177 167
0.7347894929816929 0.22516656819233544 4.954306551492965 150 131 151
-1.7876371382078835 0.8088175783599699 6.810256673756091 70 58 62
0.20239719635855735 0.07039121735817877 5.099229432460859 61 31 41
0.8922873485897819 0.22751775002676652 4.778939151565444 154 130 146
-0.9296018599540106 0.39874522098002707 6.235753844742752 53 23 33
0.06711293097799133 0.4880256361471909 5.120415963865029 169 118 133
-1.5894787175122846 0.11285135878829121 7.347184308112321 72 51 66
0.9139529662764337 0.9125558837322941 4.694899559402679 95 71 87
-1.971413847655002 -0.8677167676258752 7.8751291929729 80 52 66
-1.6755602944629335 1.4925384973604923 7.293908885556581 36 41 47
-0.5139712545611971 0.03562996560606443 5.833075476917751 63 27 37
-0.1600046466053144 0.12100477781003996 5.530270953708003 168 113 132
-2.06241949134656 -0.6197051467498826 7.924798200737259 76 55 74
-1.6454723426133349 0.6228521267727544 6.9265303385739045 64 41 47
-2.103711507243305 1.5648211009278132 7.663902404403397 104 97 104
-0.47242229794575985 -0.9277256056354095 5.686336361416659 81 38 57
-0.6393753040233054 -0.8886952783756774 5.880786957361911 36 21 26
-0.9445573365439015 0.8110307015932405 5.945699806301573 77 39 50
-1.525309548447066 -0.8410935985935967 7.388085092685328 79 66 84
-1.6578650672387323 -0.4790966654851212 7.486607451688162 138 130 151
0.12397983253001404 0.5621374131329968 4.904303668622132 146 92 116
-1.0203851445586343 -0.8501139646621717 6.27407293980665 73 37 47
0.24801751398969749 -1.1086700280884572 5.586154604816137 141 124 143
-2.1790070374536876 0.06720217998227197 7.9814263290507395 114 110 135
0.9086057447837738 -0.003057089785796758 4.793513261410875 107 79 101
-1.061839233909072 -0.6729818996143773 6.282283449468653 154 100 116
-0.6985753352761734 -1.0601731490398165 5.97019943511426 81 44 61
0.6893580443984241 -0.7861998263306837 5.098010845045831 87 70 88
0.8285131686878057 0.5967489657922578 4.8094756964820835 51 49 88
-0.25920435271073383 0.6584047882924596 5.263595657332673 85 43 57
-2.234476893975164 1.0000362015108075 7.915645564541926 76 68 89
-0.8876694016126342 -0.4363455882024615 6.234411590167887 135 79 92
-1.9864554183888057 1.26609534165002 5.683172137206274 54 33 40
-0.9273016641469801 -0.05988963444893093 6.281006599720348 59 29 39
-1.6905710689100157 1.4223382745085753 4.876640379530963 232 239 255
0.9211692756733403 -1.1956614973056061 4.88336329240036 72 56 82
0.984981965282043 -0.9874292416656372 4.791555499000432 63 52 66
0.1048213693206939 1.0439622054688884 4.8432319438942635 72 39 50
-1.0293969573108175 -0.7535624617229917 6.260778559115375 148 101 121
-2.199649457494694 0.6718462982828854 7.924160233776724 119 107 129
-1.2263619408233728 1.0175576876160946 4.706639451241001 99 47 60
-1.8539635337830627 -0.2891339958274942 7.659469418682917 136 113 139
-1.0277170240906837 -0.3423131101933755 6.5729622955642935 68 34 33
-1.4800903164823338 -0.5161583955543728 7.313999233494834 50 42 63
0.3986639118855955 -1.6716681114892054 5.457319162107413 113 88 110
-1.1610624831942677 0.6851137384846341 6.324250383539067 44 33 37
-1.2651519710621337 -0.3311406368509659 6.657079460505186 46 21 25
0.7414758268202546 -1.098002049089695 5.065314596514539 146 130 156
0.712131775758379 -0.01944271813767944 5.004771735962879 88 70 96
0.33991281765470466 -0.38565364345091596 5.415524665192611 107 69 84
1.0748553372814618 -0.06585427183251787 4.617434130342388 98 76 88
0.7013139237086591 -0.0694500183241816 5.014305411609108 77 51 76
-0.7583209434583035 0.032243515498997864 5.991799106592255 179 166 149
0.16444025632568432 0.5388515274666111 4.966808822632895 120 67 75
-0.25264597454069093 -0.11150896145538601 5.744965093311506 68 36 47
-1.0513239181436251 -0.8428972051977082 6.280696915802243 140 93 109
-2.06241949134656 -0.6197051467498826 7.924798200737259 76 55 74
-0.185316095482327 0.1319441619677132 5.586862736001092 144 96 112
-0.6374482063526516 -0.021006535747191246 5.989697012864196 220 211 182
0.8309877928754967 -1.1295324644115783 4.960288493278273 134 117 136
0.8538330397344359 0.4821033899231658 4.7948276717500375 102 81 114
-2.0072044746829842 0.8364340930231927 7.698067354843277 164 181 251
-1.1262836948705919 -0.4434998491658058 6.644654442130916 125 88 105
-0.5657519932031396 -0.8127478478315221 5.834625861916008 121 75 88
-1.2844129228288539 -0.3623330151594972 6.690740180852048 137 81 94
-0.9690555276959553 -0.7418230804524902 6.255353570076148 70 28 38
-1.9651383581463595 1.656761656387522 7.447107680457947 35 26 27
0.6989776220607419 -0.14481303729849396 5.005653181255381 92 69 85
-1.8542822245981254 1.435187324628367 6.7831763658772255 139 100 119
0.6918242823948074 0.48757939791866484 4.961548767774492 95 70 89
-0.48964626496391583 -1.0106973971073987 5.743986655041794 126 75 92
0.8853397341445662 -0.2879812372901303 4.83117540882373 108 79 97
0.2029709673749386 0.2883574467816594 5.096958283763837 77 49 63
-1.933882940202571 1.1453925264753537 5.419529824046159 92 48 61
0.6882830493379903 -0.1304598837170208 5.02016841584041 149 131 147
0.4700794579250661 -0.481634283729506 5.279121919142624 90 71 91
-0.5474413124591809 -0.37228650742500535 5.884731712434629 133 76 91
-0.9860902227821216 -0.8001341232567989 6.223804614775772 112 65 81
-1.7903035835305314 1.1934325503796348 5.2656673051617755 107 56 71
-0.8255619905572438 -0.020197944201479294 6.144854292048798 177 161 138
-0.4433185140397375 -0.12036807095541724 5.768625345285738 70 37 44
-1.2008671457756899 -0.3889211439378137 7.014109343592857 87 79 92
-0.489315411336686 -1.275626630131485 5.63162314161444 117 65 77
1.114316414791348 -0.9193285870086857 4.654967662714052 154 132 153
-1.1316998879691635 -0.4302242147225324 6.648439206731032 58 27 43
-1.4180010437174695 -0.7602809086262001 7.274107017193392 58 44 70
0.6088235455546411 0.4280381024366818 5.056419588826125 85 62 82
-1.075771855163254 -1.1575986620662986 6.938593242853321 123 108 131
-1.7114516178808206 -1.0895200957093119 7.621883671001947 91 73 87
0.13266517937780545 0.43934025048461683 5.137883301485127 158 113 134
0.11576383522563274 -1.5568224994662092 5.756472114322195 91 68 94
-2.161618225521175 1.4928701901500032 5.615963708994688 103 109 131
-1.1087234782761992 -0.2537495704219961 6.345339453503562 115 74 92
-0.6318647947672876 -0.8753026616820488 5.85324617735476 112 66 76
-1.291717568893591 -0.017643023016284287 6.786962094573254 83 36 44
-1.7909207090925077 0.9978617100627605 5.279623881479099 80 34 44
-1.5459717954246601 0.21715784274581107 7.311456853623865 111 100 116
-1.8067097782281325 -0.4691143454652514 7.640267529972634 73 53 81
-1.6854285190588005 0.7060437174235316 7.371543778296434 104 83 98
-0.9530917108592418 0.5983139522369331 6.116892315486827 156 103 119
0.14208207489263236 0.40471668212304307 5.1972124314004065 89 40 46
-1.0244472510661253 0.31632726005689493 6.51265673432978 56 24 35
1.2139559376606066 -1.0465400772224043 4.556614825860409 94 74 99
-2.277218095360609 1.6740766560102456 7.661420661763552 90 102 98
0.3287809070741834 -0.37661900583013375 5.422329318904971 147 118 136
-2.407063513367902 1.619111510238379 7.01988395906615 116 135 129
-0.7534503117248366 0.35739732998083956 5.866478967078649 85 75 83
-0.8648230324784079 0.32934890312330806 5.965372033607232 147 129 105
0.6929932096156588 -0.1567081948354117 5.025965767719691 140 123 142
0.14937287491881748 -1.3084045635228465 5.6960664417178375 88 68 96
0.10977646917333349 0.4299575020416152 5.150903613792076 90 38 40
-0.3842935559469121 -1.2725059304272244 5.632032924068459 109 63 73
-1.7279825673777578 1.5732127342763667 6.4902307461110285 101 108 134
-1.330657167712139 -0.08479687093558415 6.798874694204656 81 34 44
-1.7504286344134634 -0.8628397120466472 7.61671799787012 59 46 63
-2.0138312686241844 0.10342217954249192 7.788762452408454 127 105 128
-1.0827732049527685 -0.6859616885940567 6.317095086364966 81 34 42
-0.23780137065831003 -0.7172086031360987 5.743115511761262 103 67 79
-1.4831105862140685 -1.0494251176167657 7.372307476609718 84 71 91
0.14868124806401561 0.3119601927184347 5.169584781019724 149 105 122
-1.2458666326481052 -1.1834711949287453 6.398166482454722 123 66 75
-0.7850590184218024 -0.24783752441503987 6.174168029493666 42 17 21
-1.009058724369211 -0.4836572333673108 6.29480931779444 68 32 32
1.093151267228151 0.882235966510819 4.520904476667928 131 111 123
-1.225187117144029 -0.8953190944025017 7.075216950943875 109 76 87
0.10102633020139466 -1.3089362414046815 5.735767989564093 105 76 96
-1.4735549899928084 -1.0815822717239367 7.366636437717688 78 66 88
-0.7988353097165827 -0.004718711610644991 6.123593044657374 158 139 109
-0.7988353097165827 -0.004718711610644991 6.123593044657374 158 139 109
-1.9585247506323444 0.7697309986611701 7.66190063301702 68 70 118
-0.8075144224372356 -0.04134539270064375 6.0297717483341495 166 148 128
-1.0924169669961774 0.6193428641254344 6.314221449978332 163 106 121
-0.8372550889111656 0.24806017900833494 5.892617605185034 164 157 165
0.6232485541095947 0.3396250824600696 5.067740393013229 94 74 101
-0.6251988751093772 0.3122734587833557 5.809123503490244 182 171 165
1.2824880280734685 -0.34957713205108004 4.419656340868146 99 70 90
-1.7306149195177227 0.7061061179522757 6.880835701545306 162 105 122
-0.6712096128103195 0.13726456749150218 6.0205746704442085 162 145 119
-1.2406855490484718 1.3304143962200958 4.631399975329617 117 69 83
-0.7312982237002865 -0.30448145775196594 6.083003755924396 43 22 21
0.817149469919277 0.564745273887759 4.799523956395668 80 124 221
-0.21162176371265057 -0.8945214311652129 5.439990488912753 156 105 120
-0.6022034210344943 -0.6862708751499677 5.831441183776335 121 76 96
-0.9334303097351417 0.5845422131075978 6.133217397780564 89 38 47
-1.2951634537636636 -0.12407902172910067 6.785272094545631 63 31 44
-0.5097460996560168 0.3493543991760643 5.802487174722804 59 24 31
-2.2142033261566763 1.576921352160907 7.766242214215219 131 119 131
0.8197756095359232 0.502762568863192 4.8039760450872615 94 134 229
-0.6713132127752801 -0.291997342595991 6.033385005264457 64 28 28
-0.16265549271938046 -0.4965109083301177 5.648254187797591 126 84 98
-0.7249240209424294 -0.15285850574017296 6.036816599620974 216 205 183
-0.2744134857777767 -1.0049041169582682 5.671308892039255 74 36 49
-0.24982465954255154 -0.734314596789054 5.755352137241413 107 72 79
-1.875421738099424 0.4716789604199365 7.617670953473769 132 114 136
-1.667735870611987 -0.10909871089023312 7.462602582327911 72 67 90
-1.6904470713547786 0.826731257103971 6.707587652673086 76 56 67
1.1097010138277672 -0.09525077183745893 4.5819754598928455 139 122 141
-1.4831105862140685 -1.0494251176167657 7.372307476609718 84 71 91
1.0205133641008792 -0.7910473482148876 4.740937425586433 88 60 83
1.11343801500547 -0.8409042705290194 4.644490483090898 141 126 149
0.4819189085319493 -0.5292310073433323 5.305850536520493 143 118 140
-1.552217371145157 -0.5218013646784647 7.382027414632327 67 56 72
-0.6287896190558186 -0.015485159494338558 5.970837669389275 183 167 151
0.15055679150183454 0.2358052836978815 5.297098999931877 57 26 34
-1.2959457998926789 -0.10099545937400368 6.791646463417551 72 32 43
-0.9716495682312825 0.9649702823456265 4.665783549134003 116 71 100
-1.6153703922710907 0.8225053987224221 7.308530959512777 105 97 118
-1.1097135005530838 -0.8393941710048661 6.544839489602486 37 18 24
0.17493732390219977 -1.3076680905678995 5.6751446898830995 63 48 69
-0.635683949764259 0.33081404789591656 5.80862278390569 187 181 167
-0.7395691947426956 0.3315975934078217 5.83132694748207 171 158 149
-0.6350259270348054 0.12705616973686212 6.03149823050993 131 111 87
-1.4327925649249744 -0.693468359531574 7.264560531512275 120 117 138
-0.7534503117248366 0.35739732998083956 5.866478967078649 85 75 83
-1.2998022357701726 -0.07478588565429667 6.7909905587856825 72 32 41
-0.7918502442538077 0.241497281069592 5.88780429944005 109 100 101
-2.4511851039431254 1.6011449425772055 6.801255354781104 107 119 107
-0.160338009736292 -0.22954975396341973 5.575160740396403 134 87 95
-1.1916992246967217 -0.6809381596887618 6.606708091446634 131 72 90
-0.20906512209744596 -0.8822366629233979 5.480120643739438 150 95 114
-1.077216977335179 -1.1513073534682632 6.946698732103922 131 106 128
-0.6587402594271626 0.31577339884305694 5.851106918754629 191 184 174
1.2349499038737008 0.15010878758182447 4.43352588908227 110 87 105
-1.5913558917210804 0.7967462932806068 6.5942640312870004 62 41 46
-0.7729863366263596 -0.27954766970031114 6.131382849652062 68 33 37
-0.7964051065926079 0.3767212910292236 5.954835281114608 96 83 64
-0.6802945841695368 0.11684261610609768 6.027893638645289 64 41 25
-1.3782914012230363 -0.7577285420922241 6.6397366953540855 141 83 95
-1.3119385811532511 0.42959378348507654 6.748287235520689 66 25 33
-1.6803371277364108 1.1562153113489506 7.350213535006338 86 83 102
-1.107414424629154 -0.941086105143624 6.373340378499128 123 72 89
-0.8053859530740687 -0.686440395815363 6.194296032178576 64 34 46
-1.3861525149328082 -0.4847343162629443 7.20953127398998 62 48 73
0.19410519313398109 -1.4379139841270283 5.663661455355689 141 128 148
-0.7205769876819244 0.043477423456113135 5.957435630707827 103 82 77
-0.5293619142454293 -0.7061479801017598 5.76280602619104 143 88 107
-1.903792433757559 1.4565754357391985 6.794878282487513 32 27 31
-0.8082390913150593 0.24031483793235367 6.069788673198359 91 59 46
-0.7343482941047705 0.03144816723982297 5.972109676416734 187 175 159
0.6305330740005763 -0.004797537234356048 5.075759797065072 66 45 52
-1.1916992246967217 -0.6809381596887618 6.606708091446634 131 72 90
-1.3245245577316063 -0.04723880234541977 7.092499937947127 98 66 77
-0.654750552523402 -0.0254208788925633 6.006688948987848 207 195 169
-0.7891684119827876 1.1045553158557788 4.648483104070836 92 45 65
-1.1097135005530838 -0.8393941710048661 6.544839489602486 37 18 24
-0.6350259270348054 0.12705616973686212 6.03149823050993 131 111 87
-0.6328373234007939 -0.8930656965785769 5.844316268543377 56 28 42
-0.6374482063526516 -0.021006535747191246 5.989697012864196 220 211 182
0.6566751246277349 -0.11686379816322363 5.054045016916942 79 54 60
-0.7902156791076064 0.26704307352978063 5.863445057835477 204 201 192
0.7259972729624279 1.109096835368375 4.884577756719565 67 43 56
1.1521846231594361 -1.7773134540528 4.70812655466591 90 67 95
-0.6779746513160699 -0.3632647478126066 6.1702578410211 115 79 91
-1.0277170240906837 -0.3423131101933755 6.5729622955642935 68 34 33
0.6980251843213356 -1.72853930166069 5.166076101306418 135 125 152
-1.0526460829100484 -1.1558916016051313 6.940363052402568 107 97 121
-1.301671444138169 0.04138742821180175 6.781953746093799 80 38 50
0.10340353624632362 -0.16368429002922885 5.105392979208827 158 107 124
-1.1351203319928176 -0.857674943588098 6.367744030765737 124 67 82
-1.655016965350699 0.8163866102118504 6.677015992821383 131 85 96
-1.0430897014846188 -1.1489048529614547 6.917623930696576 100 84 111
-0.6309595410516253 -0.30398067522064637 5.889326918451284 106 68 81
0.36420905077412313 -0.24071480883044868 5.364584219070925 106 72 96
-0.7554639724175386 0.25414949848720636 5.872769857675671 143 134 125
-0.09841852108774679 0.1264101925633836 5.50796463592203 159 108 125
-1.8280401781257538 1.0643457391906606 6.7102093340555555 56 38 34
-0.7153009858977032 0.16931007625236924 6.045136922463427 113 81 56
-0.8732929076216852 0.33317369042032163 5.99023198656576 146 137 128
-0.4853112481345653 -0.9604494322425059 5.724802450863121 71 31 40
-1.8409523888142112 0.7855892282623319 7.53609413226765 119 109 134
-1.1348509099161028 -0.80486990444486 6.564455973615162 128 77 94
-1.1198221484988975 -0.803648394159487 6.3680360728437195 62 27 31
-0.6504776259878747 -0.02858586829652972 5.996617165608115 163 150 133
-1.5950957929660539 0.8114205185780266 7.309215233184439 55 42 52
-0.20638573927049308 -0.9129994605634149 5.45633147863284 110 50 62
0.33216577286697546 -0.4198332662254563 5.419900443035667 106 75 93
-0.8417829365446347 0.24044022968211393 5.9718932096943105 202 194 181
-0.8283411526447364 0.2399143398047445 5.900677561684636 213 210 205
-0.9498524606406806 -0.6105301500610054 6.237699765361871 75 32 39
0.9177109606459505 -1.749669348309696 4.927025296651805 136 122 147
-1.1222598071403536 -0.24801965130295314 6.402370827395523 103 57 67
-0.892184368437635 0.4242384482360316 6.156457667376348 153 101 113
-0.8417829365446347 0.24044022968211393 5.9718932096943105 202 194 181
2.581029768974145 -0.17311068802658297 7.125783380148837 114 61 69
-1.3936524514089053 0.5500668951858286 8.200281183102808 43 31 43
1.4671020102658223 -0.9838588704431313 4.636899395004624 139 118 135
1.5589954581668473 -0.13265185430743143 3.841186070743803 64 84 117
-0.11937614114226151 -1.0335120220344995 4.861999362909687 96 63 80
-1.151163049946914 -0.47852333763972255 6.411092430465364 115 101 126
-0.9482306948366593 0.16366764730674396 4.06599204791354 119 116 145
1.9556921938177891 -0.34611350325576795 5.987152494813774 49 34 39
-1.151163049946914 -0.47852333763972255 6.411092430465364 115 101 126
-1.0070035813496319 -0.5334553012878189 5.999447817115816 70 41 46
2.7663247536703914 -1.0051011389502835 6.656092958535413 94 51 70
1.014660580896562 -1.5459787389843516 4.0436878614369425 43 54 84
1.014660580896562 -1.5459787389843516 4.0436878614369425 43 54 84
-2.3933749535741327 1.5655113763808903 7.046236128069978 113 134 129
-1.43602118289506 0.06970794903207617 4.703038318985463 76 56 68
-1.6868726768334816 -1.239578377103098 7.703029496736193 48 38 49
-1.43602118289506 0.06970794903207617 4.703038318985463 76 56 68
6.484790610515315 -0.8394385745641707 11.621339725865282 90 39 48
6.484790610515315 -0.8394385745641707 11.621339725865282 90 39 48
-1.0098938061081872 -0.671081695777998 5.679460247634606 75 36 41
-0.6530350498217018 -0.34850026596144384 4.8440286793882725 70 57 110
-0.7192564869515427 0.17845654817977327 7.937964100899502 183 178 175
8.22112136997612 -4.036750842280061 15.160280856355975 123 111 131
-1.662805239150747 -0.39065395939932956 4.167052085979539 51 62 90
-1.9762762937753267 -0.8231174915644991 7.735163871703212 64 50 65
-1.9762762937753267 -0.8231174915644991 7.735163871703212 64 50 65
114.62001737132307 -15.811297731538861 130.4628618998741 78 80 128
1.6931886427079226 0.7113921609910573 4.41717493328717 105 118 163
-0.43298276917086426 1.215060544634466 4.954095606892807 103 50 68
0.7143242709862785 -1.7261460105815971 5.145416872145168 72 58 84
7.033103678462873 -1.0411476210645096 16.780880305834796 66 56 81
-0.22360136403254072 0.17059943989365062 7.621681859225745 91 46 53
-1.553741805945782 -0.823526723548656 7.414168679085876 68 51 61
-1.553741805945782 -0.823526723548656 7.414168679085876 72 55 61
-2.8495222852443858 1.587946713343207 6.852013260606795 125 158 165
-2.8495222852443858 1.587946713343207 6.852013260606795 125 158 165
-1.8798791203459662 0.8210012651353612 5.557838039491648 187 172 151
-1.8867944615339687 -0.24131914134275903 6.615639283571623 117 106 136
5.0494065216024095 2.33038908860893 14.120480044761898 81 67 93
50.16504311881882 -1.0834019649348159 67.42967044955199 129 112 128
-2.075967956082363 -0.07292689491654558 5.005204706357093 148 123 144
5.216622610478418 -1.3712250582831622 7.496029336736375 127 143 177
-0.9734042297056783 0.10890056493801523 4.991957379339635 177 120 139
-1.9177914380210355 0.6191458106362256 7.6369976136404585 59 46 56
-1.4447637672603368 -0.8104054304667428 7.295075487640343 141 117 139
0.4762372378343986 -0.5458418070141831 5.288942162712758 79 53 66
-1.697737556100394 0.7334675141062361 7.41666067104368 43 32 40
0.7501644639598534 -0.456286357475026 5.0085376083924515 140 117 137
0.6341291746534564 -0.7364263108711729 5.1314402010541444 95 70 99
-1.807089242958398 0.7588175122993989 7.52324214520781 112 103 124
0.7279344085479686 0.1695988587279286 4.9694544827411935 137 125 147
-1.7277497448889694 -0.8573996315644165 7.597240419515317 126 105 122
-0.855761602196728 -0.39254536805372287 6.225239190785474 51 21 29
0.6913992041410005 -0.7557817318514791 5.084470270487999 76 52 86
1.138517118444308 -0.8055153958295163 4.611850454496403 94 76 102
0.745270242018129 -0.4312470160731664 4.99898795115848 75 62 80
8.950511397701453 0.8423015741146265 7.546584695321694 82 46 58
0.745270242018129 -0.4312470160731664 4.99898795115848 75 62 80
1.0960965514514125 -0.1865251219780434 4.608282173835825 151 134 153
-1.263306547274121 -0.33139604665101735 6.659976012931224 52 23 25
2.729249657408731 -2.1133772513563125 5.271094527452699 85 84 118
-1.900793044464589 0.6193052521898865 7.620828177568509 59 43 53
-1.6083694089747924 -0.15208570969304885 7.393338150630603 138 120 136
-1.7069007066704807 0.35113726167104076 7.463515516972953 113 103 128
-1.604954874014859 -0.16380590517509191 7.398339857361552 66 46 55
-1.6356220652427094 0.016520607035400987 7.402695216993838 109 89 101
-2.04240569694266 0.08219377562961296 7.821033449815889 65 48 66
-1.7729398067342388 0.8485367339031713 7.4664889362456055 122 101 120
-1.6000384213076457 0.4491575858918485 7.335654459745257 69 53 63
-1.993932421835576 0.28787571991706595 7.74929441133769 56 46 57
-1.6280627510028003 -0.16228455957120708 7.424662273164269 68 46 59
-2.0475386528233592 -0.3039045556367059 7.85547500839468 86 70 97
-2.1683361858932524 -0.4461201539332141 7.995358837751592 120 104 115
0.8618746964613826 -0.019326092886291033 4.846420286371981 142 127 148
-2.0065533602750545 -0.10291900034688989 7.8060799307363204 58 45 63
-1.7515091481005398 0.7570411852696394 7.462570098860318 126 117 136
-1.7565839504116245 0.10263879342463168 7.5225376268909505 128 107 126
0.44704482154257646 -1.0732439596377437 5.356016264510589 103 71 92
-2.1236498794123184 0.7967793092311981 7.836505019801079 69 59 83
-1.6672679718327685 -0.14545709235688786 7.4684871497205565 57 44 51
-1.6485708023701033 -0.3369569031877646 7.462013926066848 69 49 61
-1.997192218693914 0.6268956294204667 7.730803590202539 60 47 54
-1.8790909629736257 0.6528240184489353 7.591118593059258 114 97 115
0.5640248534415566 -1.2693105026446543 5.2537059311366505 86 62 75
-2.118897981894389 -0.4385257654875102 7.947208961633723 31 29 42
-1.6212475471188728 0.891055118621631 7.3126670927545465 112 86 97
0.6713752816129728 -1.2655936034731623 5.142059357268682 139 121 145
0.7053840821063807 -1.5654241644520013 5.147088482059053 71 55 82
-1.6306134797555247 0.9099948056828772 7.33661173975866 35 26 31
-2.0571688550586686 0.7965420107389272 7.7543145332521695 56 50 96
0.8574276039975013 -0.007104892398076143 4.847233813071952 89 63 88
1.1528017040155758 -0.6269399701303151 4.589301677386097 104 76 98
-1.8547654215754459 -0.45716217981848045 7.6860599439244295 107 89 113
0.7276088545766476 -0.01971436570933154 4.98157669150831 91 68 96
-1.770831935538729 0.4062502490765632 7.510402906510339 87 61 70
-1.6530481490988695 0.7985323158950927 7.344242404042592 106 92 109
-1.6306134797555247 0.9099948056828772 7.33661173975866 35 26 31
0.5308259906785623 -0.37444140288793326 5.215750093940507 148 126 147
-1.7343466083968822 0.466406584660637 7.482433206118574 47 34 41
-1.9802306107666663 0.5024486966907554 7.726908094963447 78 61 80
-1.3250141115063632 -0.8544910035611948 7.171525243780053 100 69 77
-0.7047905181353158 -0.2555858333366356 6.063504751914224 140 119 98
-1.908338277891732 0.280486953743682 7.670412239211557 67 49 61
0.5967559841162767 -0.9998600969466457 5.198962568088646 146 125 144
0.6645260812291711 -1.3884678493866314 5.169846243073186 139 121 143
0.6645260812291711 -1.3884678493866314 5.169846243073186 139 121 143
-2.065450395072744 0.14155702730144212 7.842939898349363 83 67 78
0.510510609625392 -0.3777586832347644 5.233505836725099 157 133 155
-1.908338277891732 0.280486953743682 7.670412239211557 67 49 61
-0.14373932914607548 0.315133460885999 5.6083137403497565 58 27 32
0.6575349609544426 -0.9679018078935191 5.1332751243426795 127 111 124
-1.1506026319742249 0.44917888927108546 6.630571778602683 56 27 32
-1.0834650283816787 0.07565148774538596 6.59406224853827 51 25 34
-2.188925154656706 0.054484069605788804 7.980539736945596 62 59 80
-0.4584701072373743 0.4323985259704793 5.740375527426899 143 89 102
-1.0178292671072735 0.2464564466095515 6.334957998863443 47 14 25
0.006771923934366858 -0.2734694119312536 5.349063255768918 69 32 40
0.20452626051370462 -1.3860909525057612 5.640254228767051 80 54 79
-0.47823581894015926 -0.1251795026122725 5.802799478700297 70 38 43
1.063636526093346 -1.6150363685210356 4.771703626194332 97 72 101
0.6366649476206412 -1.546208883362935 5.214802063787348 88 67 84
-1.8365758288026797 0.6555241612176528 7.548898333698493 109 102 120
1.2454713177496877 -0.4942860629430137 4.474023913148992 147 123 139
-1.4826291239543965 -0.5721501666461768 7.306115568923874 61 53 64
1.135211225626809 0.16871014736725382 4.540556904809581 81 57 79
0.40088074639698873 -0.5388423256550583 5.374994248080963 88 64 80
0.8301915618695744 -1.070510107732257 4.963274610063008 146 132 157
0.8854133051326032 0.16633935038185121 4.7970829571473566 145 121 143
0.8247206043644126 0.14388260462493455 4.861141186145084 135 121 138
-1.5780773373666384 0.5645777621317619 6.890232129189556 124 88 100
-1.9802306107666663 0.5024486966907554 7.726908094963447 78 61 80
-1.802585125570024 0.05293873865570081 7.593503795784299 52 39 49
0.8329133425299584 -1.1296017647342071 4.961118941085362 133 118 137
1.2756866655419463 -1.491216778245509 4.5296825827569815 158 137 156
0.7411712311528813 -1.1740552557650328 5.07930623092895 75 52 78
-1.4304770036299994 -0.7326556930292676 7.283974067849862 65 50 71
0.9226555718998106 -1.5967246667610946 4.923681929996074 59 45 70
-1.5903704791991187 0.11566206470124239 7.351653799730755 80 60 72
-1.5903704791991187 0.11566206470124239 7.351653799730755 80 60 72
1.135211225626809 0.16871014736725382 4.540556904809581 81 57 79
-1.1506026319742249 0.44917888927108546 6.630571778602683 56 27 32
-1.6956114062394356 -0.8913580318918811 7.568453864890359 134 125 142
0.8239770316473031 -1.3100245339455867 4.99483022967987 146 124 137
-0.8578746762400173 -0.3928267656914166 6.224400711076849 50 18 23
1.0442723916596477 -0.8327026518633954 4.718331657181673 95 70 91
0.8898595122460894 -1.3104883349554461 4.939699967798445 91 63 85
-1.1736131232132585 0.2825709167995504 6.577003328042901 141 88 96
-2.0800805877202126 -0.8052804312814391 7.956936822033131 122 100 121
-1.054819028008105 -0.2718628528699017 6.585148646802885 47 24 34
